ply
format ascii 1.0
element vertex 1185
property float x
property float y
property float z
property uchar red
property uchar green
property uchar blue
end_header
-0.0645305 0.625093 0.0124579 138 138 138
-0.0606221 0.616759 0.0122918 113 113 113
-0.0592673 0.616758 0.0122918 76 76 76
-0.0572354 0.616759 0.0122918 6 6 6
-0.0557396 0.642457 0.012804 11 11 11
-0.0543285 0.642457 0.012804 45 45 45
-0.0529174 0.642457 0.012804 150 150 150
0.067027 0.642457 0.012804 113 113 113
0.0684381 0.642456 0.012804 127 127 127
0.0698492 0.642457 0.012804 110 110 110
0.0712604 0.642457 0.012804 85 85 85
0.0726716 0.642458 0.012804 75 75 75
0.0740825 0.642457 0.012804 60 60 60
0.0741116 0.633656 0.0126286 68 68 68
0.0761993 0.633657 0.0126286 56 56 56
0.0775911 0.633657 0.0126286 45 45 45
0.17549 0.700863 0.013968 53 53 53
0.177799 0.700863 0.013968 37 37 37
0.179339 0.700862 0.013968 19 19 19
-0.180584 0.633656 0.0112255 100 100 100
-0.179193 0.633657 0.0112255 110 110 110
-0.177801 0.633656 0.0112255 95 95 95
-0.176409 0.633656 0.0112255 79 79 79
-0.099993 0.58553 0.0103729 182 182 182
-0.0996468 0.593037 0.0105059 124 124 124
-0.0974208 0.58553 0.0103729 110 110 110
-0.0961349 0.58553 0.010373 86 86 86
-0.0935626 0.58553 0.0103729 76 76 76
-0.0897045 0.585531 0.010373 66 66 66
-0.0884184 0.58553 0.010373 60 60 60
-0.0864893 0.58553 0.0103729 52 52 52
-0.0875638 0.608643 0.0107824 43 43 43
-0.086227 0.608643 0.0107824 30 30 30
-0.0673954 0.616759 0.0109262 176 176 176
-0.0660406 0.616758 0.0109262 157 157 157
-0.0646859 0.616758 0.0109262 148 148 148
-0.05859 0.616758 0.0109262 29 29 29
-0.0571508 0.642457 0.0113814 3 3 3
-0.0557396 0.642457 0.0113814 16 16 16
0.0663214 0.642456 0.0113814 91 91 91
0.0691437 0.642457 0.0113814 113 113 113
0.0705548 0.642457 0.0113814 84 84 84
0.071966 0.642457 0.0113814 76 76 76
0.0755034 0.633656 0.0112255 58 58 58
0.103659 0.625094 0.0110738 187 187 187
0.174009 0.690403 0.0122308 42 42 42
-0.184151 0.642458 0.00853624 106 106 106
-0.18274 0.642458 0.00853624 99 99 99
-0.181329 0.642457 0.00853623 96 96 96
-0.182094 0.651505 0.00865645 91 91 91
-0.06875 0.616759 0.00819478 206 206 206
-0.0660406 0.616758 0.00819478 172 172 172
-0.0646859 0.616758 0.00819477 151 151 151
-0.0619766 0.616758 0.00819477 133 133 133
-0.0606221 0.616759 0.00819478 118 118 118
-0.0572354 0.616759 0.00819478 8 8 8
-0.0571508 0.642457 0.00853624 15 15 15
0.0112882 0.642457 0.00853623 153 153 153
0.0141104 0.642456 0.00853622 198 198 198
0.0649105 0.642458 0.00853624 104 104 104
0.0663214 0.642456 0.00853622 88 88 88
0.0684381 0.642456 0.00853622 116 116 116
0.0698492 0.642457 0.00853623 103 103 103
0.0712604 0.642457 0.00853624 75 75 75
0.0726716 0.642458 0.00853624 70 70 70
0.101599 0.625093 0.00830552 222 222 222
0.102972 0.625093 0.00830552 209 209 209
0.105032 0.625094 0.00830552 187 187 187
0.10821 0.633656 0.0084193 172 172 172
0.109602 0.633656 0.0084193 160 160 160
0.110994 0.633656 0.0084193 147 147 147
0.167793 0.700864 0.00931227 81 81 81
0.170102 0.700863 0.00931226 78 78 78
0.172492 0.690403 0.00917328 46 46 46
-0.184151 0.642458 0.00782494 104 104 104
-0.179888 0.633656 0.00771774 94 94 94
-0.178496 0.633655 0.00771773 91 91 91
-0.0901185 0.633656 0.00771773 45 45 45
-0.0887268 0.633656 0.00771774 34 34 34
-0.0694274 0.616759 0.00751194 212 212 212
-0.0680727 0.616758 0.00751193 197 197 197
-0.0672763 0.625093 0.00761344 180 180 180
-0.0659034 0.625093 0.00761344 158 158 158
-0.0645305 0.625093 0.00761345 142 142 142
-0.0606221 0.616759 0.00751194 123 123 123
-0.0579127 0.616759 0.00751193 6 6 6
-0.0564453 0.642458 0.00782494 0 0 0
-0.0550341 0.642457 0.00782493 30 30 30
0.0119937 0.642457 0.00782493 170 170 170
0.0134048 0.642457 0.00782493 206 206 206
0.0529765 0.660814 0.00804851 167 167 167
0.0649105 0.642458 0.00782494 106 106 106
0.0663214 0.642456 0.00782492 100 100 100
0.0677326 0.642457 0.00782493 122 122 122
0.0691437 0.642457 0.00782494 110 110 110
0.0692403 0.633656 0.00771774 92 92 92
0.0706322 0.633657 0.00771774 82 82 82
0.0713939 0.625094 0.00761345 68 68 68
0.0768951 0.633656 0.00771774 54 54 54
0.0888994 0.608644 0.0074131 220 220 220
0.104731 0.633656 0.00771774 207 207 207
0.107949 0.642457 0.00782493 189 189 189
0.107514 0.633656 0.00771773 172 172 172
0.108906 0.633657 0.00771775 167 167 167
0.167793 0.700864 0.0085363 78 78 78
0.167185 0.690403 0.00840889 73 73 73
0.170217 0.690403 0.00840889 57 57 57
0.172492 0.690403 0.0084089 34 34 34
0.174009 0.690403 0.0084089 41 41 41
-0.0694274 0.616759 0.00682911 212 212 212
-0.0672763 0.625093 0.00692138 176 176 176
-0.0659034 0.625093 0.00692138 159 159 159
-0.0640088 0.616759 0.00682911 145 145 145
-0.0599448 0.616759 0.00682911 101 101 101
-0.05859 0.616758 0.0068291 18 18 18
-0.0572354 0.616759 0.0068291 0 0 0
-0.0571508 0.642457 0.00711365 0 0 0
0.0112882 0.642457 0.00711365 155 155 155
0.0141104 0.642456 0.00711364 196 196 196
0.0647513 0.651506 0.00721384 120 120 120
0.0649105 0.642458 0.00711366 100 100 100
0.0663214 0.642456 0.00711364 108 108 108
0.0684381 0.642456 0.00711364 117 117 117
0.0698492 0.642457 0.00711365 97 97 97
0.071966 0.642457 0.00711365 69 69 69
0.0761992 0.660813 0.0073169 62 62 62
0.0888993 0.642457 0.00711365 162 162 162
0.0903105 0.642458 0.00711366 185 185 185
0.0917214 0.642457 0.00711364 192 192 192
0.0931326 0.642457 0.00711365 206 206 206
0.0929006 0.633656 0.0070162 218 218 218
0.0942924 0.633656 0.0070162 225 225 225
0.0963801 0.633657 0.00701621 227 227 227
0.0922752 0.58553 0.00648332 219 219 219
0.0935613 0.58553 0.00648332 214 214 214
0.0948473 0.58553 0.00648332 207 207 207
0.100931 0.608644 0.00673925 196 196 196
0.10397 0.616758 0.0068291 178 178 178
0.105325 0.616759 0.00682911 163 163 163
0.107357 0.616759 0.0068291 144 144 144
0.163393 0.690402 0.00764452 92 92 92
0.16491 0.690402 0.00764452 85 85 85
0.170872 0.700863 0.00776035 67 67 67
0.173181 0.700863 0.00776035 51 51 51
0.17325 0.690402 0.00764452 39 39 39
-0.17986 0.625094 0.00622935 113 113 113
-0.179888 0.633656 0.00631468 96 96 96
-0.0680727 0.616758 0.00614629 198 198 198
-0.066718 0.616758 0.00614628 178 178 178
-0.0653634 0.616759 0.00614629 161 161 161
-0.0606221 0.616759 0.00614629 112 112 112
-0.0592673 0.616758 0.00614629 50 50 50
-0.0579127 0.616759 0.00614629 12 12 12
-0.05602 0.633657 0.00631469 7 7 7
-0.0546282 0.633656 0.00631468 26 26 26
0.0141104 0.642456 0.00640238 197 197 197
0.0642048 0.642457 0.00640239 111 111 111
0.065616 0.642458 0.00640239 82 82 82
0.067027 0.642457 0.00640238 124 124 124
0.0684381 0.642456 0.00640238 117 117 117
0.0698492 0.642457 0.00640238 100 100 100
0.0733771 0.642458 0.0064024 69 69 69
0.0747881 0.642457 0.00640238 54 54 54
0.0873334 0.633656 0.00631467 113 113 113
0.0871831 0.625094 0.00622935 153 153 153
0.0885561 0.625094 0.00622935 182 182 182
0.089929 0.625093 0.00622935 183 183 183
0.091302 0.625093 0.00622935 201 201 201
0.0926749 0.625093 0.00622935 213 213 213
0.094048 0.625094 0.00622935 227 227 227
0.0944352 0.593038 0.0059099 195 195 195
0.0942043 0.58553 0.00583508 193 193 193
0.0970404 0.593038 0.0059099 184 184 184
0.0983429 0.593038 0.0059099 173 173 173
0.0996455 0.593038 0.0059099 161 161 161
0.167023 0.700862 0.00698442 81 81 81
0.165668 0.690402 0.00688018 83 83 83
0.167185 0.690403 0.00688019 78 78 78
0.169459 0.690403 0.00688018 61 61 61
0.170976 0.690403 0.00688018 46 46 46
0.170329 0.680249 0.006779 42 42 42
0.171823 0.68025 0.00677901 39 39 39
-0.181976 0.633657 0.00561311 99 99 99
-0.182034 0.642457 0.00569106 84 84 84
-0.06875 0.616759 0.00546342 207 207 207
-0.0679629 0.625093 0.00553724 177 177 177
-0.0665899 0.625093 0.00553724 166 166 166
-0.0645305 0.625093 0.00553725 141 141 141
-0.0606221 0.616759 0.00546342 120 120 120
-0.0592673 0.616758 0.00546341 52 52 52
-0.0579127 0.616759 0.00546342 6 6 6
-0.0565581 0.616759 0.00546342 0 0 0
-0.05602 0.633657 0.00561311 2 2 2
-0.0546282 0.633656 0.0056131 26 26 26
0.0119937 0.642457 0.00569106 158 158 158
0.0134048 0.642457 0.00569106 209 209 209
0.0647513 0.651506 0.00577122 112 112 112
0.065616 0.642458 0.00569106 93 93 93
0.0664568 0.633657 0.0056131 130 130 130
0.0691437 0.642457 0.00569106 108 108 108
0.0705548 0.642457 0.00569106 81 81 81
0.072024 0.633657 0.00561311 69 69 69
0.0748075 0.633656 0.0056131 61 61 61
0.08581 0.625093 0.00553724 74 74 74
0.0871831 0.625094 0.00553725 156 156 156
0.0885561 0.625094 0.00553725 171 171 171
0.089929 0.625093 0.00553725 183 183 183
0.091302 0.625093 0.00553725 194 194 194
0.0926749 0.625093 0.00553725 220 220 220
0.094048 0.625094 0.00553725 226 226 226
0.100226 0.625093 0.00553725 184 184 184
0.0999059 0.616759 0.00546342 179 179 179
0.110298 0.633657 0.0056131 147 147 147
0.170656 0.722766 0.00640246 84 84 84
0.169202 0.711644 0.00630394 82 82 82
0.165668 0.690402 0.00611577 81 81 81
0.165846 0.680248 0.00602582 65 65 65
0.170217 0.690403 0.00611577 47 47 47
0.181768 0.722765 0.00640245 34 34 34
0.183356 0.722765 0.00640245 43 43 43
-0.0673954 0.616759 0.00409778 190 190 190
-0.0653634 0.616759 0.00409778 162 162 162
-0.0619766 0.616758 0.00409778 127 127 127
-0.0606221 0.616759 0.00409779 113 113 113
-0.0592673 0.616758 0.00409778 46 46 46
-0.0572354 0.616759 0.00409778 0 0 0
-0.0567158 0.633656 0.00421005 0 0 0
0.0126993 0.642458 0.00426853 190 190 190
0.0660393 0.660814 0.00439049 96 96 96
0.0661824 0.651507 0.00432865 88 88 88
0.0676133 0.651505 0.00432864 108 108 108
0.0677326 0.642457 0.00426853 123 123 123
0.0678485 0.633656 0.00421005 105 105 105
0.0699362 0.633656 0.00421005 76 76 76
0.0707074 0.625094 0.00415317 67 67 67
0.0864965 0.625093 0.00415316 119 119 119
0.0878695 0.625093 0.00415316 172 172 172
0.0890685 0.616758 0.00409778 195 195 195
0.0904233 0.616759 0.00409779 209 209 209
0.094048 0.625094 0.00415316 239 239 239
0.105427 0.633657 0.00421006 177 177 177
0.106818 0.633656 0.00421005 178 178 178
0.108906 0.633657 0.00421006 181 181 181
0.167793 0.700864 0.00465658 80 80 80
0.167943 0.690402 0.00458708 72 72 72
0.169459 0.690403 0.00458708 56 56 56
0.170976 0.690403 0.00458708 40 40 40
0.17626 0.700863 0.00465658 46 46 46
-0.062654 0.616758 7.08274e-007 97 97 97
-0.0612994 0.616759 7.08275e-007 90 90 90
-0.0371237 0.593037 6.81033e-007 198 198 198
-0.0358212 0.593038 6.81034e-007 204 204 204
-0.00230982 0.600739 6.89878e-007 193 193 193
-0.063844 0.625094 -0.00138344 102 102 102
-0.0394375 0.608644 -0.00134703 87 87 87
-0.0375927 0.616758 -0.00136499 104 104 104
-0.0665899 0.625093 -0.00207548 151 151 151
-0.0652169 0.625093 -0.00207548 124 124 124
-0.063844 0.625094 -0.00207548 99 99 99
-0.0619766 0.616758 -0.00204781 72 72 72
-0.0549197 0.625094 -0.00207548 57 57 57
-0.0528602 0.625093 -0.00207548 137 137 137
-0.0396247 0.616759 -0.00204781 84 84 84
-0.0382701 0.616759 -0.00204781 97 97 97
-0.0369154 0.616758 -0.00204781 105 105 105
-0.0355607 0.616759 -0.00204781 164 164 164
0.0119937 0.642457 -0.00213313 158 158 158
0.0134048 0.642457 -0.00213313 205 205 205
0.171733 0.690402 -0.00229232 50 50 50
-0.18424 0.651505 -0.00288446 1 1 1
-0.0660406 0.616758 -0.00273063 148 148 148
-0.0652169 0.625093 -0.00276753 118 118 118
-0.0633314 0.616759 -0.00273063 100 100 100
-0.0612994 0.616759 -0.00273063 71 71 71
-0.0599448 0.616759 -0.00273063 34 34 34
-0.0549197 0.625094 -0.00276753 69 69 69
-0.0535466 0.625093 -0.00276753 132 132 132
-0.0521737 0.625094 -0.00276753 132 132 132
-0.0409794 0.616759 -0.00273063 92 92 92
-0.0389474 0.616758 -0.00273063 93 93 93
-0.0375927 0.616758 -0.00273063 93 93 93
-0.00467964 0.608643 -0.0026947 116 116 116
-0.00304873 0.616758 -0.00273063 121 121 121
0.0126993 0.642458 -0.00284441 195 195 195
0.0141104 0.642456 -0.0028444 200 200 200
0.170102 0.700863 -0.00310299 79 79 79
0.171641 0.700862 -0.00310299 48 48 48
0.173181 0.700863 -0.00310299 52 52 52
0.171733 0.690402 -0.00305667 40 40 40
-0.0653634 0.616759 -0.00477914 133 133 133
-0.0645305 0.625093 -0.00484372 102 102 102
-0.062654 0.616758 -0.00477914 81 81 81
-0.0612994 0.616759 -0.00477915 66 66 66
-0.0528602 0.625093 -0.00484372 117 117 117
-0.0396247 0.616759 -0.00477914 107 107 107
0.172412 0.700864 -0.00543086 51 51 51
0.174721 0.700863 -0.00543085 40 40 40
-0.0652169 0.625093 -0.00830408 105 105 105
-0.0631575 0.625093 -0.00830408 71 71 71
-0.0617845 0.625094 -0.00830409 52 52 52
-0.0604116 0.625094 -0.00830409 18 18 18
-0.0576655 0.625093 -0.00830408 4 4 4
-0.040302 0.616758 -0.00819336 105 105 105
-0.0389474 0.616758 -0.00819336 102 102 102
-0.0359566 0.600739 -0.00798055 123 123 123
-0.0340902 0.608644 -0.00808556 138 138 138
0.047811 0.680249 -0.00903681 158 158 158
0.0507992 0.680249 -0.0090368 140 140 140
0.0558793 0.660814 -0.00877862 112 112 112
0.059764 0.680249 -0.0090368 96 96 96
0.170102 0.700863 -0.00931065 71 71 71
0.17626 0.700863 -0.00931065 35 35 35
0.177799 0.700863 -0.00931066 36 36 36
-0.0659034 0.625093 -0.00968822 104 104 104
-0.0645305 0.625093 -0.00968823 83 83 83
-0.0631575 0.625093 -0.00968822 63 63 63
-0.0599448 0.616759 -0.00955905 13 13 13
-0.0409794 0.616759 -0.00955905 85 85 85
-0.0396247 0.616759 -0.00955905 97 97 97
-0.0382701 0.616759 -0.00955906 111 111 111
-0.0369154 0.616758 -0.00955904 120 120 120
-0.0355607 0.616759 -0.00955905 136 136 136
-0.0327533 0.608643 -0.00943327 143 143 143
0.0500522 0.680249 -0.0105431 134 134 134
0.0515462 0.680248 -0.0105431 113 113 113
0.0530404 0.680249 -0.0105431 119 119 119
0.0545346 0.68025 -0.0105431 116 116 116
0.0560286 0.680249 -0.0105431 112 112 112
0.0575227 0.680249 -0.0105431 98 98 98
0.059764 0.680249 -0.0105431 101 101 101
0.0612581 0.68025 -0.0105431 87 87 87
0.113777 0.633656 -0.00982094 77 77 77
0.171641 0.700862 -0.0108625 59 59 59
0.170976 0.690403 -0.0107004 41 41 41
0.171076 0.68025 -0.0105431 37 37 37
-0.0653634 0.616759 -0.0102419 108 108 108
-0.0640088 0.616759 -0.0102419 80 80 80
-0.0619766 0.616758 -0.0102419 62 62 62
-0.0606221 0.616759 -0.0102419 35 35 35
-0.0590385 0.625093 -0.0103803 2 2 2
-0.0389474 0.616758 -0.0102419 103 103 103
-0.0375927 0.616758 -0.0102419 114 114 114
-0.0348834 0.616759 -0.0102419 128 128 128
-0.0335287 0.616758 -0.0102419 139 139 139
-0.0322656 0.625093 -0.0103803 143 143 143
-0.0308926 0.625093 -0.0103803 156 156 156
-0.00560847 0.600739 -0.00997587 151 151 151
0.0141104 0.642456 -0.0106686 198 198 198
0.0449935 0.660813 -0.0109735 150 150 150
0.0489586 0.67039 -0.0111325 137 137 137
0.0504311 0.67039 -0.0111325 122 122 122
0.0519036 0.67039 -0.0111325 122 122 122
0.0533761 0.670391 -0.0111325 118 118 118
0.0537021 0.660813 -0.0109735 106 106 106
0.0551535 0.660813 -0.0109735 102 102 102
0.056605 0.660813 -0.0109735 97 97 97
0.0587822 0.660814 -0.0109735 95 95 95
0.0648361 0.608644 -0.0101071 12 12 12
0.0988533 0.625093 -0.0103803 45 45 45
0.101947 0.633656 -0.0105225 50 50 50
0.113082 0.633657 -0.0105225 64 64 64
0.114473 0.633657 -0.0105225 55 55 55
0.115865 0.633657 -0.0105225 21 21 21
0.170872 0.700863 -0.0116385 61 61 61
0.172412 0.700864 -0.0116385 45 45 45
0.174721 0.700863 -0.0116385 44 44 44
0.174766 0.690402 -0.0114648 33 33 33
-0.0652169 0.625093 -0.0110724 86 86 86
-0.063844 0.625094 -0.0110724 65 65 65
-0.0619766 0.616758 -0.0109247 50 50 50
-0.0606221 0.616759 -0.0109248 39 39 39
-0.0590385 0.625093 -0.0110724 0 0 0
-0.0409794 0.616759 -0.0109248 83 83 83
-0.0381007 0.608643 -0.010781 101 101 101
-0.0367638 0.608643 -0.010781 117 117 117
-0.0355607 0.616759 -0.0109248 132 132 132
-0.0340902 0.608644 -0.010781 136 136 136
-0.0320849 0.608643 -0.010781 137 137 137
-0.00575805 0.616758 -0.0109248 153 153 153
0.0141104 0.642456 -0.0113799 194 194 194
0.0460137 0.67039 -0.0118747 146 146 146
0.0474862 0.67039 -0.0118747 134 134 134
0.0511783 0.690402 -0.0122292 127 127 127
0.0515462 0.680248 -0.0120494 131 131 131
0.0519036 0.67039 -0.0118747 120 120 120
0.0570572 0.67039 -0.0118747 95 95 95
0.0580564 0.660813 -0.0117051 98 98 98
0.0595078 0.660814 -0.0117051 89 89 89
0.0995397 0.625093 -0.0110724 56 56 56
0.112386 0.633656 -0.0112241 63 63 63
0.113777 0.633656 -0.0112241 83 83 83
0.115169 0.633656 -0.0112241 39 39 39
0.171641 0.700862 -0.0124145 56 56 56
0.173181 0.700863 -0.0124145 39 39 39
0.174721 0.700863 -0.0124145 42 42 42
0.17703 0.700863 -0.0124145 30 30 30
0.178569 0.700862 -0.0124145 17 17 17
-0.0605699 0.593037 -0.0118177 26 26 26
-0.040302 0.616758 -0.0122904 84 84 84
-0.0389474 0.616758 -0.0122904 93 93 93
-0.0375927 0.616758 -0.0122904 105 105 105
-0.035427 0.608644 -0.0121287 113 113 113
-0.034206 0.616759 -0.0122904 128 128 128
-0.0327533 0.608643 -0.0121287 137 137 137
-0.0281843 0.633657 -0.0126272 153 153 153
-0.0254007 0.633656 -0.0126271 162 162 162
-0.0219683 0.625094 -0.0124565 175 175 175
-0.00735335 0.608644 -0.0121287 163 163 163
-0.00440339 0.616758 -0.0122904 145 145 145
0.0112882 0.642457 -0.0128025 143 143 143
0.0141104 0.642456 -0.0128025 201 201 201
0.0345715 0.642457 -0.0128025 205 205 205
0.0359826 0.642457 -0.0128025 188 188 188
0.0373937 0.642457 -0.0128025 117 117 117
0.0420906 0.660813 -0.0131683 98 98 98
0.0507992 0.680249 -0.0135556 120 120 120
0.0530404 0.680249 -0.0135556 113 113 113
0.0533761 0.670391 -0.0133592 101 101 101
0.0548485 0.67039 -0.0133592 95 95 95
0.056321 0.67039 -0.0133592 96 96 96
0.0577935 0.670391 -0.0133592 103 103 103
0.0601937 0.633656 -0.0126271 80 80 80
0.0629773 0.633656 -0.0126271 41 41 41
0.067027 0.642457 -0.0128025 58 58 58
0.0685445 0.633656 -0.0126271 54 54 54
0.0699362 0.633656 -0.0126271 56 56 56
0.0747881 0.642457 -0.0128025 49 49 49
0.100555 0.633656 -0.0126272 52 52 52
0.103716 0.642457 -0.0128025 56 56 56
0.103339 0.633656 -0.0126271 36 36 36
0.104731 0.633656 -0.0126271 20 20 20
0.113082 0.633657 -0.0126272 73 73 73
0.112583 0.625094 -0.0124565 67 67 67
0.116561 0.633657 -0.0126272 12 12 12
0.167185 0.690403 -0.013758 69 69 69
0.170217 0.690403 -0.013758 45 45 45
0.171733 0.690402 -0.0137579 42 42 42
0.174009 0.690403 -0.013758 33 33 33
0.176283 0.690401 -0.0137579 18 18 18
0.177799 0.690401 -0.0137579 4 4 4
-0.038444 0.625093 -0.0131485 88 88 88
-0.0369154 0.616758 -0.0129732 112 112 112
-0.0355607 0.616759 -0.0129732 116 116 116
-0.0340902 0.608644 -0.0128025 124 124 124
-0.0328513 0.616758 -0.0129732 131 131 131
-0.0314967 0.616759 -0.0129732 145 145 145
-0.030142 0.616759 -0.0129732 146 146 146
-0.0288331 0.625093 -0.0131485 152 152 152
-0.0267737 0.625094 -0.0131485 157 157 157
-0.0254007 0.625094 -0.0131485 167 167 167
-0.0240277 0.625093 -0.0131485 166 166 166
-0.0225388 0.651505 -0.0137041 172 172 172
-0.0178494 0.625094 -0.0131486 165 165 165
-0.0165954 0.616759 -0.0129732 173 173 173
-0.00758771 0.60074 -0.0126363 158 158 158
-0.00601648 0.608644 -0.0128025 155 155 155
-0.00494875 0.600739 -0.0126363 146 146 146
0.0112882 0.642457 -0.0135138 147 147 147
0.0141104 0.642456 -0.0135138 197 197 197
0.0352771 0.642457 -0.0135138 199 199 199
0.0366882 0.642458 -0.0135138 153 153 153
0.0442678 0.660813 -0.0138999 151 151 151
0.0493051 0.680248 -0.0143087 132 132 132
0.0496949 0.67039 -0.0141013 121 121 121
0.0522933 0.680249 -0.0143087 113 113 113
0.0537875 0.68025 -0.0143087 111 111 111
0.0552816 0.680249 -0.0143087 106 106 106
0.0663214 0.642456 -0.0135138 60 60 60
0.0677326 0.642457 -0.0135138 55 55 55
0.067394 0.616759 -0.0129732 55 55 55
0.0747881 0.642457 -0.0135138 53 53 53
0.0991637 0.633657 -0.0133287 37 37 37
0.100555 0.633656 -0.0133287 58 58 58
0.103339 0.633656 -0.0133287 38 38 38
0.105427 0.633657 -0.0133287 21 21 21
0.107778 0.625093 -0.0131485 30 30 30
0.110994 0.633656 -0.0133287 25 25 25
0.112386 0.633656 -0.0133287 63 63 63
0.115169 0.633656 -0.0133287 42 42 42
0.116561 0.633657 -0.0133287 16 16 16
0.167943 0.690402 -0.0145223 64 64 64
0.171823 0.68025 -0.0143087 34 34 34
-0.0394375 0.608644 -0.0141503 63 63 63
-0.0382701 0.616759 -0.0143389 81 81 81
-0.0367638 0.608643 -0.0141503 88 88 88
-0.0352968 0.600739 -0.0139665 106 106 106
-0.0339773 0.600739 -0.0139665 104 104 104
-0.0325648 0.593037 -0.0137874 125 125 125
-0.0312622 0.593037 -0.0137874 122 122 122
-0.0286571 0.593038 -0.0137874 136 136 136
-0.0247577 0.585531 -0.0136129 147 147 147
-0.019463 0.600738 -0.0139665 155 155 155
-0.0167112 0.608644 -0.0141503 166 166 166
-0.0153744 0.608644 -0.0141503 171 171 171
-0.00890721 0.600739 -0.0139665 162 162 162
-0.00758771 0.60074 -0.0139665 157 157 157
-0.00626823 0.600739 -0.0139665 146 146 146
-0.00494875 0.600739 -0.0139665 138 138 138
0.0134048 0.642457 -0.0149364 205 205 205
0.0442678 0.660813 -0.0153632 143 143 143
0.047811 0.680249 -0.015815 135 135 135
0.0493051 0.680248 -0.015815 130 130 130
0.0515462 0.680248 -0.015815 123 123 123
0.0530404 0.680249 -0.015815 98 98 98
0.0545346 0.68025 -0.015815 95 95 95
0.0551535 0.660813 -0.0153631 90 90 90
0.0697598 0.651505 -0.0151468 60 60 60
0.0711908 0.651506 -0.0151468 59 59 59
0.0686479 0.625093 -0.0145327 44 44 44
0.0713281 0.633657 -0.0147318 49 49 49
0.0734157 0.633656 -0.0147318 45 45 45
0.0768951 0.633656 -0.0147318 46 46 46
0.105833 0.642458 -0.0149364 39 39 39
0.107244 0.642457 -0.0149364 17 17 17
0.11169 0.633657 -0.0147318 56 56 56
0.115865 0.633657 -0.0147318 28 28 28
0.171547 0.711645 -0.0165449 76 76 76
0.173892 0.711645 -0.0165449 62 62 62
0.175455 0.711646 -0.016545 53 53 53
0.17626 0.700863 -0.0162943 34 34 34
0.174766 0.690402 -0.0160511 28 28 28
0.176283 0.690401 -0.016051 16 16 16
-0.0374323 0.608644 -0.0148241 73 73 73
-0.0359566 0.600739 -0.0146316 91 91 91
-0.0346371 0.600739 -0.0146316 88 88 88
-0.0333175 0.600739 -0.0146316 102 102 102
-0.032174 0.616758 -0.0150218 106 106 106
-0.0302719 0.633656 -0.0154333 105 105 105
-0.0281101 0.616759 -0.0150218 115 115 115
-0.0254007 0.651506 -0.0158681 129 129 129
-0.0239698 0.651506 -0.0158681 132 132 132
-0.0225785 0.642456 -0.0156477 133 133 133
-0.0091447 0.616758 -0.0150217 161 161 161
-0.00779003 0.616758 -0.0150218 154 154 154
-0.00643539 0.616759 -0.0150218 144 144 144
-0.00440339 0.616758 -0.0150217 137 137 137
0.0112882 0.642457 -0.0156477 142 142 142
0.0141104 0.642456 -0.0156477 194 194 194
0.0489586 0.67039 -0.016328 128 128 128
0.0515462 0.680248 -0.0165681 117 117 117
0.0530404 0.680249 -0.0165681 110 110 110
0.0557276 0.690402 -0.0168154 87 87 87
0.0575227 0.680249 -0.0165681 100 100 100
0.0705548 0.642457 -0.0156477 53 53 53
0.0706322 0.633657 -0.0154333 55 55 55
0.0734157 0.633656 -0.0154333 52 52 52
0.0748075 0.633656 -0.0154333 40 40 40
0.0768951 0.633656 -0.0154333 52 52 52
0.0961074 0.625094 -0.0152248 52 52 52
0.0991637 0.633657 -0.0154333 34 34 34
0.103716 0.642457 -0.0156477 58 58 58
0.103339 0.633656 -0.0154333 37 37 37
0.104731 0.633656 -0.0154333 23 23 23
0.106123 0.633656 -0.0154333 14 14 14
0.104647 0.616758 -0.0150218 19 19 19
0.109151 0.625093 -0.0152248 14 14 14
0.112386 0.633656 -0.0154333 56 56 56
0.113777 0.633656 -0.0154333 70 70 70
0.115169 0.633656 -0.0154333 37 37 37
0.116561 0.633657 -0.0154333 7 7 7
0.170765 0.711646 -0.0173328 83 83 83
0.172328 0.711645 -0.0173328 71 71 71
0.174673 0.711645 -0.0173328 53 53 53
0.176236 0.711645 -0.0173328 40 40 40
0.177799 0.700863 -0.0170702 32 32 32
-0.0409794 0.616759 -0.0163875 11 11 11
-0.0396247 0.616759 -0.0163875 29 29 29
-0.0381007 0.608643 -0.0161718 34 34 34
-0.037071 0.625093 -0.0166089 50 50 50
-0.034325 0.625093 -0.0166089 81 81 81
-0.032952 0.625093 -0.0166089 105 105 105
-0.0314967 0.616759 -0.0163875 108 108 108
-0.030142 0.616759 -0.0163875 122 122 122
-0.0281101 0.616759 -0.0163875 136 136 136
-0.0254007 0.633656 -0.0168364 149 149 149
-0.0240089 0.633656 -0.0168364 162 162 162
-0.0226548 0.625093 -0.0166089 157 157 157
-0.0125399 0.585531 -0.0155577 144 144 144
-0.0110725 0.593037 -0.0157572 145 145 145
-0.00996774 0.58553 -0.0155577 140 140 140
-0.007213 0.571073 -0.0151736 129 129 129
-0.00411964 0.625093 -0.0166089 119 119 119
0.0112882 0.642457 -0.0170703 147 147 147
0.0155215 0.642457 -0.0170703 112 112 112
0.0169326 0.642458 -0.0170703 167 167 167
0.0449935 0.660813 -0.017558 147 147 147
0.0485581 0.680249 -0.0180744 123 123 123
0.0500522 0.680249 -0.0180744 128 128 128
0.0533761 0.670391 -0.0178125 94 94 94
0.056321 0.67039 -0.0178125 79 79 79
0.067027 0.642457 -0.0170703 62 62 62
0.0747683 0.651506 -0.0173107 53 53 53
0.0748075 0.633656 -0.0168364 45 45 45
0.0768951 0.633656 -0.0168364 49 49 49
0.0782869 0.633656 -0.0168364 12 12 12
0.094048 0.625094 -0.0166089 99 99 99
0.0954209 0.625093 -0.0166089 56 56 56
0.0998595 0.633656 -0.0168364 37 37 37
0.101947 0.633656 -0.0168364 55 55 55
0.103339 0.633656 -0.0168364 39 39 39
0.106538 0.642457 -0.0170703 22 22 22
0.107949 0.642457 -0.0170703 19 19 19
0.110298 0.633657 -0.0168364 15 15 15
0.11169 0.633657 -0.0168365 42 42 42
0.115005 0.642458 -0.0170703 66 66 66
0.114473 0.633657 -0.0168364 51 51 51
0.115865 0.633657 -0.0168365 17 17 17
0.126999 0.633657 -0.0168364 3 3 3
0.128391 0.633656 -0.0168364 25 25 25
0.129783 0.633656 -0.0168364 35 35 35
0.170765 0.711646 -0.0189086 80 80 80
0.169333 0.700864 -0.0186222 70 70 70
0.167943 0.690402 -0.0183442 66 66 66
0.172412 0.700864 -0.0186222 51 51 51
0.174766 0.690402 -0.0183442 28 28 28
-0.0416568 0.616759 -0.0177531 13 13 13
-0.040302 0.616758 -0.0177531 21 21 21
-0.0389474 0.616758 -0.0177531 42 42 42
-0.0369154 0.616758 -0.0177531 70 70 70
-0.0355607 0.616759 -0.0177531 89 89 89
-0.032952 0.625093 -0.017993 109 109 109
-0.0314967 0.616759 -0.0177531 124 124 124
-0.0295196 0.625093 -0.017993 128 128 128
-0.0274601 0.625093 -0.017993 146 146 146
-0.0247143 0.625093 -0.017993 158 158 158
-0.00935858 0.608643 -0.0175195 163 163 163
-0.00802173 0.608644 -0.0175195 142 142 142
-0.00668494 0.608644 -0.0175195 138 138 138
-0.0050807 0.616759 -0.0177531 113 113 113
-0.00372606 0.616759 -0.0177531 121 121 121
0.0110894 0.651506 -0.0187533 136 136 136
0.0134048 0.642457 -0.0184928 202 202 202
0.0148159 0.642457 -0.0184928 150 150 150
0.0176382 0.642458 -0.0184928 173 173 173
0.0352771 0.642457 -0.0184928 171 171 171
0.0366882 0.642458 -0.0184928 140 140 140
0.0442678 0.660813 -0.0190212 135 135 135
0.047811 0.680249 -0.0195806 123 123 123
0.0515462 0.680248 -0.0195806 119 119 119
0.0537875 0.68025 -0.0195807 94 94 94
0.0560286 0.680249 -0.0195806 86 86 86
0.0590169 0.680249 -0.0195806 80 80 80
0.0601937 0.633656 -0.0182395 69 69 69
0.0761992 0.660813 -0.0190212 48 48 48
0.0768951 0.633656 -0.0182395 48 48 48
0.0782869 0.633656 -0.0182395 11 11 11
0.0977719 0.633657 -0.0182395 50 50 50
0.0991637 0.633657 -0.0182395 39 39 39
0.101947 0.633656 -0.0182395 52 52 52
0.105718 0.625093 -0.017993 27 27 27
0.107091 0.625094 -0.017993 33 33 33
0.110298 0.633657 -0.0182395 18 18 18
0.11169 0.633657 -0.0182395 42 42 42
0.113082 0.633657 -0.0182395 64 64 64
0.114473 0.633657 -0.0182395 49 49 49
0.115865 0.633657 -0.0182395 21 21 21
0.126303 0.633657 -0.0182395 3 3 3
0.129822 0.642458 -0.0184928 35 35 35
0.131233 0.642457 -0.0184928 37 37 37
0.169202 0.711644 -0.0204843 84 84 84
0.171547 0.711645 -0.0204844 76 76 76
0.170102 0.700863 -0.020174 66 66 66
0.175455 0.711646 -0.0204844 55 55 55
0.171733 0.690402 -0.0198729 41 41 41
0.174766 0.690402 -0.0198729 32 32 32
0.176283 0.690401 -0.0198729 12 12 12
-0.042334 0.616758 -0.018436 4 4 4
-0.040302 0.616758 -0.018436 21 21 21
-0.0389474 0.616758 -0.018436 53 53 53
-0.0375927 0.616758 -0.018436 64 64 64
-0.0362381 0.616759 -0.018436 83 83 83
-0.0348834 0.616759 -0.018436 99 99 99
-0.032952 0.625093 -0.0186851 114 114 114
-0.0315791 0.625094 -0.0186851 134 134 134
-0.0288331 0.625093 -0.0186851 139 139 139
-0.0267737 0.625094 -0.0186851 145 145 145
-0.0254007 0.625094 -0.0186851 155 155 155
-0.0240277 0.625093 -0.0186851 171 171 171
-0.0212818 0.625093 -0.0186851 163 163 163
-0.00956691 0.600738 -0.0179571 165 165 165
-0.00802173 0.608644 -0.0181934 156 156 156
-0.00626823 0.600739 -0.0179571 139 139 139
0.0141104 0.642456 -0.0192041 194 194 194
0.0155215 0.642457 -0.0192042 111 111 111
0.0169326 0.642458 -0.0192042 181 181 181
0.0189598 0.651506 -0.0194746 186 186 186
0.0316623 0.633657 -0.0189411 195 195 195
0.0352771 0.642457 -0.0192042 189 189 189
0.0366882 0.642458 -0.0192042 138 138 138
0.043542 0.660812 -0.0197528 133 133 133
0.0504311 0.67039 -0.0200391 117 117 117
0.0526399 0.670391 -0.0200391 97 97 97
0.0557381 0.642457 -0.0192042 77 77 77
0.0599715 0.642457 -0.0192041 77 77 77
0.0601937 0.633656 -0.0189411 71 71 71
0.0636733 0.633657 -0.0189411 46 46 46
0.0657608 0.633656 -0.0189411 61 61 61
0.0671526 0.633656 -0.0189411 47 47 47
0.0685445 0.633656 -0.0189411 58 58 58
0.0761993 0.633657 -0.0189411 44 44 44
0.0775911 0.633657 -0.0189411 41 41 41
0.0967938 0.625093 -0.0186851 39 39 39
0.103339 0.633656 -0.0189411 50 50 50
0.102972 0.625093 -0.0186851 34 34 34
0.108655 0.642457 -0.0192042 25 25 25
0.110066 0.642457 -0.0192042 22 22 22
0.111477 0.642457 -0.0192041 21 21 21
0.112888 0.642457 -0.0192042 32 32 32
0.112386 0.633656 -0.0189411 47 47 47
0.115169 0.633656 -0.0189411 39 39 39
0.114643 0.625094 -0.0186851 9 9 9
0.129116 0.642457 -0.0192042 26 26 26
0.130527 0.642457 -0.0192042 16 16 16
0.131938 0.642457 -0.0192042 30 30 30
0.170765 0.711646 -0.0212723 76 76 76
0.173892 0.711645 -0.0212723 60 60 60
0.175455 0.711646 -0.0212723 37 37 37
0.17257 0.680249 -0.0203338 23 23 23
-0.0409794 0.616759 -0.0191188 16 16 16
-0.0396247 0.616759 -0.0191188 36 36 36
-0.0382701 0.616759 -0.0191189 57 57 57
-0.0369154 0.616758 -0.0191188 72 72 72
-0.0348834 0.616759 -0.0191189 88 88 88
-0.0328513 0.616758 -0.0191188 105 105 105
-0.0314165 0.608644 -0.0188673 121 121 121
-0.030142 0.616759 -0.0191188 132 132 132
-0.0287874 0.616758 -0.0191188 135 135 135
-0.0274327 0.616759 -0.0191188 139 139 139
-0.026078 0.616758 -0.0191188 154 154 154
-0.00802173 0.608644 -0.0188673 155 155 155
-0.00626823 0.600739 -0.0186222 139 139 139
0.0119937 0.642457 -0.0199155 152 152 152
0.0134048 0.642457 -0.0199155 205 205 205
0.0345715 0.642457 -0.0199155 205 205 205
0.0359826 0.642457 -0.0199155 184 184 184
0.0373937 0.642457 -0.0199155 92 92 92
0.0452775 0.67039 -0.0207813 130 130 130
0.0457192 0.660813 -0.0204845 136 136 136
0.0482224 0.67039 -0.0207814 121 121 121
0.0511673 0.67039 -0.0207813 105 105 105
0.0541123 0.670391 -0.0207814 91 91 91
0.0532349 0.633657 -0.0196427 84 84 84
0.0535452 0.625093 -0.0193772 87 87 87
0.0585604 0.642457 -0.0199155 82 82 82
0.0599715 0.642457 -0.0199155 65 65 65
0.0601937 0.633656 -0.0196426 64 64 64
0.0642048 0.642457 -0.0199155 44 44 44
0.067027 0.642457 -0.0199155 61 61 61
0.0665537 0.585531 -0.0181508 40 40 40
0.0755034 0.633656 -0.0196426 43 43 43
0.0768951 0.633656 -0.0196426 46 46 46
0.0782869 0.633656 -0.0196426 3 3 3
0.100555 0.633656 -0.0196427 51 51 51
0.103716 0.642457 -0.0199155 51 51 51
0.106965 0.651506 -0.020196 41 41 41
0.108396 0.651505 -0.0201959 20 20 20
0.108906 0.633657 -0.0196427 34 34 34
0.110298 0.633657 -0.0196427 17 17 17
0.11169 0.633657 -0.0196427 45 45 45
0.113777 0.633656 -0.0196426 62 62 62
0.115169 0.633656 -0.0196426 35 35 35
0.129822 0.642458 -0.0199155 17 17 17
0.131233 0.642457 -0.0199155 46 46 46
0.166426 0.690403 -0.0214017 65 65 65
0.172492 0.690403 -0.0214017 34 34 34
0.174009 0.690403 -0.0214017 40 40 40
-0.0409794 0.616759 -0.0198017 12 12 12
-0.0396247 0.616759 -0.0198017 42 42 42
-0.0382701 0.616759 -0.0198017 53 53 53
-0.0369154 0.616758 -0.0198017 79 79 79
-0.0355607 0.616759 -0.0198017 89 89 89
-0.034206 0.616759 -0.0198017 95 95 95
-0.0328513 0.616758 -0.0198017 112 112 112
-0.0307481 0.608644 -0.0195411 126 126 126
-0.0280744 0.608643 -0.0195411 142 142 142
-0.0267202 0.600739 -0.0192873 143 143 143
-0.0254007 0.600739 -0.0192873 150 150 150
-0.0113639 0.608644 -0.0195411 170 170 170
-0.00935858 0.608643 -0.0195411 157 157 157
-0.00668494 0.608644 -0.0195411 145 145 145
0.0112882 0.642457 -0.0206267 150 150 150
0.0190492 0.642457 -0.0206267 206 206 206
0.0338659 0.642457 -0.0206267 200 200 200
0.0366882 0.642458 -0.0206268 144 144 144
0.0380992 0.642457 -0.0206267 63 63 63
0.0428164 0.660814 -0.0212161 106 106 106
0.0452775 0.67039 -0.0215235 136 136 136
0.047811 0.680249 -0.0218401 124 124 124
0.0493051 0.680248 -0.0218401 117 117 117
0.0507992 0.680249 -0.0218401 111 111 111
0.0522933 0.680249 -0.0218401 99 99 99
0.0545346 0.68025 -0.0218401 88 88 88
0.0560286 0.680249 -0.0218401 88 88 88
0.056321 0.67039 -0.0215236 83 83 83
0.0560185 0.633657 -0.0203442 84 84 84
0.0574103 0.633657 -0.0203442 74 74 74
0.0601937 0.633656 -0.0203442 68 68 68
0.0629773 0.633656 -0.0203442 39 39 39
0.0643692 0.633657 -0.0203442 54 54 54
0.0748075 0.633656 -0.0203442 30 30 30
0.0768951 0.633656 -0.0203442 50 50 50
0.101251 0.633656 -0.0203442 51 51 51
0.102643 0.633657 -0.0203442 38 38 38
0.102286 0.625093 -0.0200693 36 36 36
0.103659 0.625094 -0.0200693 22 22 22
0.110298 0.633657 -0.0203442 17 17 17
0.113082 0.633657 -0.0203442 56 56 56
0.114473 0.633657 -0.0203442 45 45 45
0.130527 0.642457 -0.0206267 15 15 15
0.131938 0.642457 -0.0206267 26 26 26
0.165668 0.690402 -0.0221661 84 84 84
0.167185 0.690403 -0.0221661 70 70 70
0.168701 0.690401 -0.022166 54 54 54
0.170217 0.690403 -0.0221661 40 40 40
0.17626 0.700863 -0.0225019 28 28 28
-0.0409794 0.616759 -0.0204845 20 20 20
-0.0396247 0.616759 -0.0204845 36 36 36
-0.0382701 0.616759 -0.0204845 59 59 59
-0.0367638 0.608643 -0.0202149 59 59 59
-0.035427 0.608644 -0.020215 84 84 84
-0.0340902 0.608644 -0.0202149 94 94 94
-0.0327533 0.608643 -0.0202149 102 102 102
-0.0307481 0.608644 -0.0202149 120 120 120
-0.0254007 0.616758 -0.0204845 141 141 141
-0.024046 0.616758 -0.0204845 157 157 157
-0.0086902 0.608643 -0.0202149 156 156 156
-0.00668494 0.608644 -0.0202149 144 144 144
0.0112882 0.642457 -0.021338 141 141 141
0.0345715 0.642457 -0.021338 163 163 163
0.0359826 0.642457 -0.021338 159 159 159
0.0373937 0.642457 -0.021338 80 80 80
0.043542 0.660812 -0.0219476 122 122 122
0.0449935 0.660813 -0.0219476 120 120 120
0.0474862 0.67039 -0.0222658 109 109 109
0.0489586 0.67039 -0.0222657 104 104 104
0.0504311 0.67039 -0.0222657 102 102 102
0.0519036 0.67039 -0.0222657 89 89 89
0.0533761 0.670391 -0.0222658 84 84 84
0.052916 0.642457 -0.021338 92 92 92
0.0578549 0.642458 -0.021338 79 79 79
0.0697598 0.651505 -0.0216385 54 54 54
0.0741116 0.633656 -0.0210457 42 42 42
0.0768951 0.633656 -0.0210457 51 51 51
0.101947 0.633656 -0.0210457 42 42 42
0.105127 0.642457 -0.021338 37 37 37
0.108396 0.651505 -0.0216385 28 28 28
0.111759 0.660813 -0.0219477 34 34 34
0.113777 0.633656 -0.0210457 47 47 47
0.129822 0.642458 -0.021338 16 16 16
0.131233 0.642457 -0.021338 42 42 42
0.170872 0.700863 -0.0232778 66 66 66
0.172412 0.700864 -0.0232779 51 51 51
0.17626 0.700863 -0.0232778 36 36 36
-0.0421021 0.633657 -0.0217473 24 24 24
-0.0382701 0.616759 -0.0211673 44 44 44
-0.0367638 0.608643 -0.0208888 63 63 63
-0.0355607 0.616759 -0.0211673 78 78 78
-0.034325 0.625093 -0.0214534 87 87 87
-0.032952 0.625093 -0.0214534 109 109 109
-0.0315791 0.625094 -0.0214534 116 116 116
-0.0302061 0.625093 -0.0214534 127 127 127
-0.0288802 0.633657 -0.0217473 139 139 139
-0.0274884 0.633656 -0.0217472 144 144 144
-0.024046 0.616758 -0.0211673 150 150 150
-0.0226548 0.625093 -0.0214534 160 160 160
-0.00935858 0.608643 -0.0208888 157 157 157
-0.00802173 0.608644 -0.0208888 157 157 157
-0.00668494 0.608644 -0.0208888 137 137 137
-0.00534807 0.608643 -0.0208888 129 129 129
0.0112882 0.642457 -0.0220493 137 137 137
0.0309664 0.633656 -0.0217473 132 132 132
0.0331603 0.642457 -0.0220493 118 118 118
0.0345715 0.642457 -0.0220493 128 128 128
0.0359826 0.642457 -0.0220493 129 129 129
0.0373937 0.642457 -0.0220493 83 83 83
0.0397091 0.651506 -0.0223599 71 71 71
0.0420906 0.660813 -0.0226793 79 79 79
0.043542 0.660812 -0.0226793 110 110 110
0.0449935 0.660813 -0.0226793 101 101 101
0.045433 0.651505 -0.0223598 100 100 100
0.048295 0.651506 -0.0223598 86 86 86
0.0530404 0.680249 -0.0233463 82 82 82
0.0613826 0.642457 -0.0220493 58 58 58
0.0615856 0.633657 -0.0217473 39 39 39
0.0629773 0.633656 -0.0217472 54 54 54
0.0690443 0.651506 -0.0223599 51 51 51
0.0755034 0.633656 -0.0217473 33 33 33
0.0768951 0.633656 -0.0217472 47 47 47
0.0782869 0.633656 -0.0217472 7 7 7
0.10301 0.642457 -0.0220493 44 44 44
0.104422 0.642458 -0.0220493 41 41 41
0.104345 0.625094 -0.0214534 27 27 27
0.107091 0.625094 -0.0214534 34 34 34
0.114299 0.642457 -0.0220493 31 31 31
0.11571 0.642457 -0.0220493 34 34 34
0.116561 0.633657 -0.0217473 7 7 7
0.129116 0.642457 -0.0220493 16 16 16
0.130527 0.642457 -0.0220493 33 33 33
0.131938 0.642457 -0.0220493 35 35 35
0.169333 0.700864 -0.0240538 80 80 80
0.170872 0.700863 -0.0240538 61 61 61
0.173181 0.700863 -0.0240538 48 48 48
0.17325 0.690402 -0.0236948 34 34 34
-0.0382701 0.616759 -0.0238987 37 37 37
-0.0369154 0.616758 -0.0238987 57 57 57
-0.0355607 0.616759 -0.0238987 67 67 67
-0.034206 0.616759 -0.0238987 81 81 81
-0.0328513 0.616758 -0.0238987 95 95 95
-0.030142 0.616759 -0.0238987 115 115 115
-0.0287874 0.616758 -0.0238987 122 122 122
-0.0274601 0.625093 -0.0242216 131 131 131
-0.0260966 0.633656 -0.0245534 145 145 145
-0.0240277 0.625093 -0.0242216 151 151 151
0.0119937 0.642457 -0.0248945 156 156 156
0.0304077 0.651506 -0.0252451 182 182 182
0.0318387 0.651506 -0.0252451 186 186 186
0.0331603 0.642457 -0.0248945 178 178 178
0.0345715 0.642457 -0.0248945 174 174 174
0.0359826 0.642457 -0.0248945 146 146 146
0.0373937 0.642457 -0.0248945 81 81 81
0.105032 0.625094 -0.0242217 26 26 26
0.110066 0.642457 -0.0248945 20 20 20
0.111477 0.642457 -0.0248945 13 13 13
0.112386 0.633656 -0.0245534 32 32 32
0.113777 0.633656 -0.0245535 37 37 37
-0.0369154 0.616758 -0.0259472 50 50 50
-0.0355607 0.616759 -0.0259472 64 64 64
-0.034206 0.616759 -0.0259472 83 83 83
-0.0328513 0.616758 -0.0259472 93 93 93
-0.0315791 0.625094 -0.0262979 107 107 107
-0.0302061 0.625093 -0.0262979 122 122 122
-0.0274601 0.625093 -0.0262979 134 134 134
-0.0260872 0.625092 -0.0262978 143 143 143
-0.0240277 0.625093 -0.0262979 147 147 147
0.0274869 0.633657 -0.0266581 173 173 173
0.0303381 0.642457 -0.0270284 155 155 155
0.0317493 0.642457 -0.0270284 136 136 136
0.0331603 0.642457 -0.0270284 116 116 116
0.0352771 0.642457 -0.0270284 103 103 103
0.0366882 0.642458 -0.0270284 61 61 61
0.0420906 0.660813 -0.0278006 75 75 75
0.0761994 0.585531 -0.0246335 44 44 44
0.0774855 0.585531 -0.0246335 57 57 57
0.0787714 0.58553 -0.0246334 97 97 97
0.09995 0.600739 -0.0252733 28 28 28
0.111477 0.642457 -0.0270284 7 7 7
0.112888 0.642457 -0.0270284 12 12 12
0.112386 0.633656 -0.0266581 31 31 31
0.11571 0.642457 -0.0270284 40 40 40
0.115169 0.633656 -0.0266581 10 10 10
-0.0362381 0.616759 -0.0266301 63 63 63
-0.0348834 0.616759 -0.0266301 76 76 76
-0.0335287 0.616758 -0.02663 92 92 92
-0.032174 0.616758 -0.02663 101 101 101
-0.0308194 0.616759 -0.02663 111 111 111
-0.0295196 0.625093 -0.0269899 128 128 128
-0.0281101 0.616759 -0.02663 134 134 134
-0.026078 0.616758 -0.02663 150 150 150
-0.00779003 0.616758 -0.02663 154 154 154
-0.00643539 0.616759 -0.0266301 135 135 135
0.0240075 0.633657 -0.0273596 182 182 182
0.0261048 0.642456 -0.0277396 180 180 180
0.0275159 0.642456 -0.0277396 175 175 175
0.028927 0.642457 -0.0277396 175 175 175
0.0303381 0.642457 -0.0277396 149 149 149
0.0331603 0.642457 -0.0277396 102 102 102
0.0345715 0.642457 -0.0277396 103 103 103
0.0368472 0.651506 -0.0281303 74 74 74
0.0373937 0.642457 -0.0277396 61 61 61
0.0413649 0.660812 -0.0285321 65 65 65
0.0428164 0.660814 -0.0285322 85 85 85
0.0449935 0.660813 -0.0285322 124 124 124
0.0774855 0.585531 -0.0252817 74 74 74
0.0787714 0.58553 -0.0252817 123 123 123
0.0800576 0.585531 -0.0252817 148 148 148
0.101269 0.600739 -0.0259384 19 19 19
0.109602 0.633656 -0.0273596 10 10 10
0.110994 0.633656 -0.0273596 4 4 4
0.114299 0.642457 -0.0277396 41 41 41
0.11571 0.642457 -0.0277396 39 39 39
0.117122 0.642457 -0.0277396 5 5 5
-0.0355607 0.616759 -0.0279958 71 71 71
-0.0335287 0.616758 -0.0279957 89 89 89
-0.032174 0.616758 -0.0279957 104 104 104
-0.0308194 0.616759 -0.0279958 116 116 116
-0.0294112 0.608643 -0.0276274 125 125 125
-0.0281101 0.616759 -0.0279958 127 127 127
-0.0267554 0.616759 -0.0279958 136 136 136
-0.0254007 0.616758 -0.0279957 149 149 149
-0.00735335 0.608644 -0.0276274 147 147 147
0.0275159 0.642456 -0.0291622 171 171 171
0.028927 0.642457 -0.0291623 170 170 170
0.0303381 0.642457 -0.0291622 143 143 143
0.0317493 0.642457 -0.0291622 124 124 124
0.0345715 0.642457 -0.0291622 98 98 98
0.0359826 0.642457 -0.0291623 72 72 72
0.0373937 0.642457 -0.0291623 53 53 53
0.0420906 0.660813 -0.0299954 64 64 64
0.0449935 0.660813 -0.0299954 113 113 113
0.0742943 0.578211 -0.026246 127 127 127
0.0801577 0.600739 -0.0272686 80 80 80
0.110298 0.633657 -0.0287628 35 35 35
0.11169 0.633657 -0.0287628 28 28 28
0.115005 0.642458 -0.0291623 50 50 50
0.116416 0.642458 -0.0291623 33 33 33
-0.0355607 0.616759 -0.0286785 72 72 72
-0.034206 0.616759 -0.0286785 87 87 87
-0.0328513 0.616758 -0.0286785 98 98 98
-0.0315791 0.625094 -0.0290661 108 108 108
-0.030142 0.616759 -0.0286785 121 121 121
-0.0281467 0.625094 -0.0290661 138 138 138
-0.0260872 0.625092 -0.029066 148 148 148
-0.0247049 0.633657 -0.0294643 153 153 153
-0.00802173 0.608644 -0.0283012 159 159 159
-0.00668494 0.608644 -0.0283012 132 132 132
0.0282215 0.642457 -0.0298735 166 166 166
0.0296326 0.642457 -0.0298735 156 156 156
0.0318387 0.651506 -0.0302942 126 126 126
0.0331603 0.642457 -0.0298735 106 106 106
0.0345715 0.642457 -0.0298735 96 96 96
0.0359826 0.642457 -0.0298735 70 70 70
0.0373937 0.642457 -0.0298735 54 54 54
0.0420906 0.660813 -0.030727 78 78 78
0.0460137 0.67039 -0.0311723 107 107 107
0.0802099 0.608644 -0.0283012 70 70 70
0.0829727 0.616759 -0.0286786 81 81 81
0.111477 0.642457 -0.0298735 22 22 22
0.112888 0.642457 -0.0298735 14 14 14
0.114299 0.642457 -0.0298735 47 47 47
0.113777 0.633656 -0.0294643 44 44 44
-0.0360955 0.608643 -0.028975 56 56 56
-0.0350116 0.625094 -0.0297582 83 83 83
-0.0308194 0.616759 -0.0293614 112 112 112
-0.0294112 0.608643 -0.028975 126 126 126
-0.0280744 0.608643 -0.028975 132 132 132
-0.0260966 0.633656 -0.0301658 142 142 142
-0.0246952 0.642457 -0.0305848 151 151 151
-0.0068656 0.625094 -0.0297582 137 137 137
0.0253993 0.642051 -0.0305655 178 178 178
0.0282215 0.642457 -0.0305848 171 171 171
0.0288787 0.633657 -0.0301658 158 158 158
0.0302705 0.633656 -0.0301658 130 130 130
0.0323582 0.633656 -0.0301658 112 112 112
0.0366882 0.642458 -0.0305848 59 59 59
0.0428164 0.660814 -0.0314587 77 77 77
0.0449935 0.660813 -0.0314586 119 119 119
0.0474862 0.67039 -0.0319146 106 106 106
0.0478964 0.660814 -0.0314587 99 99 99
0.0742943 0.578211 -0.0275263 66 66 66
0.0794557 0.593037 -0.0282321 72 72 72
0.0807583 0.593037 -0.0282321 91 91 91
0.0983429 0.593038 -0.0282321 35 35 35
0.0996455 0.593038 -0.0282321 7 7 7
0.115388 0.660813 -0.0314586 24 24 24
0.114836 0.651505 -0.0310155 28 28 28
0.114299 0.642457 -0.0305848 28 28 28
0.117122 0.642457 -0.0305848 17 17 17
-0.0369154 0.616758 -0.0320928 32 32 32
-0.0355607 0.616759 -0.0320928 53 53 53
-0.034206 0.616759 -0.0320928 69 69 69
-0.030142 0.616759 -0.0320928 113 113 113
-0.0287874 0.616758 -0.0320928 112 112 112
-0.0274327 0.616759 -0.0320928 129 129 129
-0.0233413 0.625094 -0.0325265 149 149 149
-0.0091447 0.616758 -0.0320927 153 153 153
-0.00735335 0.608644 -0.0316705 132 132 132
0.00575663 0.616758 -0.0320928 120 120 120
0.00711132 0.616759 -0.0320928 160 160 160
0.00846597 0.616759 -0.0320928 200 200 200
0.00982064 0.616759 -0.0320928 214 214 214
0.0130425 0.625093 -0.0325265 231 231 231
0.0295182 0.625093 -0.0325265 222 222 222
0.030818 0.616759 -0.0320928 209 209 209
0.0321726 0.616759 -0.0320928 206 206 206
0.0335273 0.616758 -0.0320928 198 198 198
0.0478964 0.660814 -0.0343852 106 106 106
0.048295 0.651506 -0.0339008 98 98 98
0.053693 0.585531 -0.0304678 144 144 144
0.0549791 0.585531 -0.0304679 90 90 90
0.0748968 0.593038 -0.0308585 59 59 59
0.0816912 0.625094 -0.0325265 55 55 55
0.0976917 0.593038 -0.0308585 45 45 45
0.108906 0.633657 -0.0329721 12 12 12
-0.0369154 0.616758 -0.0327756 24 24 24
-0.0355607 0.616759 -0.0327756 56 56 56
-0.034206 0.616759 -0.0327756 75 75 75
-0.032952 0.625093 -0.0332185 86 86 86
-0.0314967 0.616759 -0.0327757 93 93 93
-0.0302061 0.625093 -0.0332185 101 101 101
-0.0287874 0.616758 -0.0327756 121 121 121
-0.0233413 0.625094 -0.0332186 142 142 142
-0.0115462 0.600739 -0.0319243 161 161 161
-0.00846739 0.616759 -0.0327757 146 146 146
-0.00711274 0.616759 -0.0327756 115 115 115
-0.00575805 0.616758 -0.0327756 96 96 96
0.00711132 0.616759 -0.0327756 158 158 158
0.00802033 0.608644 -0.0323444 190 190 190
0.00982064 0.616759 -0.0327756 207 207 207
0.0111753 0.616759 -0.0327757 221 221 221
0.01253 0.616758 -0.0327756 225 225 225
0.0274045 0.608643 -0.0323443 219 219 219
0.0294098 0.608644 -0.0323444 209 209 209
0.0335273 0.616758 -0.0327756 183 183 183
0.034882 0.61676 -0.0327757 161 161 161
0.048295 0.651506 -0.0346221 104 104 104
0.0556221 0.58553 -0.0311161 79 79 79
0.0976917 0.593038 -0.0315151 48 48 48
0.0989941 0.593037 -0.031515 14 14 14
0.108464 0.625094 -0.0332186 6 6 6
-0.037071 0.625093 -0.0339106 35 35 35
-0.035698 0.625094 -0.0339106 57 57 57
-0.034325 0.625093 -0.0339106 68 68 68
-0.032952 0.625093 -0.0339105 84 84 84
-0.0308926 0.625093 -0.0339106 106 106 106
-0.0288331 0.625093 -0.0339106 116 116 116
-0.0260872 0.625092 -0.0339105 132 132 132
-0.00935858 0.608643 -0.0330182 154 154 154
-0.00802173 0.608644 -0.0330182 133 133 133
-0.00643539 0.616759 -0.0334585 116 116 116
0.00711132 0.616759 -0.0334584 155 155 155
0.00846597 0.616759 -0.0334585 185 185 185
0.00982064 0.616759 -0.0334584 200 200 200
0.0118526 0.616759 -0.0334584 217 217 217
0.0294098 0.608644 -0.0330182 204 204 204
0.0307467 0.608644 -0.0330182 196 196 196
0.0327519 0.608643 -0.0330182 181 181 181
0.0340888 0.608644 -0.0330182 163 163 163
0.0489586 0.67039 -0.0363679 103 103 103
0.05305 0.585531 -0.0317643 146 146 146
0.0556221 0.58553 -0.0317643 72 72 72
0.0579634 0.593037 -0.0321716 60 60 60
0.0983429 0.593038 -0.0321716 22 22 22
0.0996455 0.593038 -0.0321716 21 21 21
-0.037071 0.625093 -0.0346027 31 31 31
-0.035698 0.625094 -0.0346027 54 54 54
-0.0328513 0.616758 -0.0341413 87 87 87
-0.0308194 0.616759 -0.0341413 97 97 97
-0.0288331 0.625093 -0.0346027 115 115 115
-0.0274327 0.616759 -0.0341413 126 126 126
-0.0260872 0.625092 -0.0346026 137 137 137
-0.0211078 0.651506 -0.0360647 154 154 154
-0.00982206 0.616759 -0.0341413 154 154 154
-0.00846739 0.616759 -0.0341413 145 145 145
-0.00711274 0.616759 -0.0341413 123 123 123
-0.00575805 0.616758 -0.0341413 104 104 104
0.00400986 0.608643 -0.0336921 106 106 106
0.00601508 0.608644 -0.0336921 123 123 123
0.00735195 0.608644 -0.0336921 166 166 166
0.00914328 0.616758 -0.0341413 192 192 192
0.0111753 0.616759 -0.0341413 211 211 211
0.01253 0.616758 -0.0341413 223 223 223
0.0314151 0.608644 -0.0336921 188 188 188
0.0327519 0.608643 -0.0336921 178 178 178
0.0340888 0.608644 -0.0336921 159 159 159
0.0489586 0.67039 -0.0371101 109 109 109
0.0504311 0.67039 -0.0371101 102 102 102
0.0549791 0.585531 -0.0324127 83 83 83
0.0562652 0.585531 -0.0324127 64 64 64
0.0575512 0.58553 -0.0324126 50 50 50
0.0768506 0.593037 -0.0328282 41 41 41
0.10061 0.600739 -0.0332545 7 7 7
-0.0355607 0.616759 -0.0348241 48 48 48
-0.034206 0.616759 -0.0348241 63 63 63
-0.0328513 0.616758 -0.0348241 80 80 80
-0.0308194 0.616759 -0.0348241 99 99 99
-0.0295196 0.625093 -0.0352947 116 116 116
-0.0281467 0.625094 -0.0352947 120 120 120
-0.0267925 0.633656 -0.0357782 136 136 136
-0.0240277 0.625093 -0.0352947 144 144 144
-0.0226548 0.625093 -0.0352947 148 148 148
-0.0115462 0.600739 -0.0339196 160 160 160
-0.0091447 0.616758 -0.0348241 154 154 154
-0.00779003 0.616758 -0.0348241 131 131 131
-0.00643539 0.616759 -0.0348241 105 105 105
-0.0050807 0.616759 -0.0348241 106 106 106
0.00575663 0.616758 -0.0348241 120 120 120
0.00711132 0.616759 -0.0348241 144 144 144
0.00846597 0.616759 -0.0348241 181 181 181
0.00982064 0.616759 -0.0348241 199 199 199
0.0118526 0.616759 -0.0348241 209 209 209
0.0293577 0.600739 -0.0339196 197 197 197
0.0314151 0.608644 -0.0343659 188 188 188
0.0327519 0.608643 -0.0343659 177 177 177
0.0340888 0.608644 -0.0343659 157 157 157
0.0540558 0.593038 -0.0334847 136 136 136
