ply
format ascii 1.0
element vertex 1314
property double x
property double y
property double z
property uchar red
property uchar green
property uchar blue
end_header
0.04445 3.64787 0.455254 155 110 82
0.05715 3.64787 0.455254 132 99 55
0.0635 3.64787 0.455254 167 124 90
0.073025 3.64787 0.455254 149 125 81
0.10795 3.64787 0.455254 134 104 81
0.123825 3.64787 0.455254 109 68 48
0.127 3.64787 0.455254 170 127 103
0.155575 3.64787 0.455254 139 98 76
0.15875 3.64787 0.455254 186 142 127
0.187325 3.64787 0.455254 156 120 98
0.2032 3.64787 0.455254 128 94 79
0.20955 3.64787 0.455254 197 142 119
0.212725 3.64787 0.455254 186 123 93
0.2159 3.64787 0.455254 165 106 79
0.225425 3.64787 0.455254 186 135 102
0.254 3.64787 0.455254 146 111 94
0.257175 3.64787 0.455254 182 149 133
0.3175 3.64787 0.455254 172 129 111
0.3302 3.64787 0.455254 55 29 17
0.333375 3.64787 0.455254 50 49 42
0.33655 3.64787 0.455254 177 168 164
0.352425 3.64787 0.455254 168 146 126
0.3556 3.64787 0.455254 197 159 135
0.384175 3.64787 0.455254 180 129 104
0.396875 3.64787 0.455254 131 79 58
0.40005 3.64787 0.455254 137 102 72
0.4191 3.64787 0.455254 151 101 72
0.422275 3.64787 0.455254 153 103 74
0.428625 3.64787 0.455254 122 84 48
0.4318 3.64787 0.455254 116 90 57
0.434975 3.64787 0.455254 147 112 82
0.441325 3.64787 0.455254 116 87 51
0.485775 3.64787 0.455254 92 122 21
0.48895 3.64787 0.455254 113 134 35
0.517525 3.64787 0.455254 152 143 80
0.530225 3.64787 0.455254 165 152 135
0.549275 3.64787 0.455254 164 123 106
0.60325 3.64787 0.455254 177 135 116
0.71926 3.55434 0.443581 161 126 107
0.864658 3.55434 0.443581 162 143 135
0.867752 3.55434 0.443581 185 165 161
0.923437 3.55434 0.443581 154 108 78
1.08283 3.46548 0.432492 147 104 81
1.17031 3.46548 0.432492 124 77 56
1.18237 3.46548 0.432492 204 180 169
0.426435 0.955994 0.119308 119 111 100
0.427267 0.955994 0.119308 133 130 128
0.428932 0.955994 0.119308 93 83 85
0.429764 0.955994 0.119308 117 109 107
0.431428 0.955994 0.119308 89 79 84
0.437976 0.949446 0.118491 80 75 95
0.446077 0.942987 0.117685 126 123 123
0.538175 1.09149 0.136218 94 93 101
0.46059 0.936616 0.11689 36 31 51
0.475717 0.93033 0.116105 156 140 130
-1.45135 2.71802 0.336854 185 149 102
-1.3923 2.77238 0.343591 146 124 112
-1.15756 2.61546 0.324142 80 79 80
-1.17634 2.66575 0.330376 57 58 58
-1.17402 2.66575 0.330376 38 36 35
-1.1717 2.66575 0.330376 19 16 11
-1.16938 2.66575 0.330376 8 5 1
-1.16706 2.66575 0.330376 9 3 0
-1.21961 3.01346 0.373468 146 126 113
-1.20388 3.01346 0.373468 158 113 80
-1.19601 3.01346 0.373468 154 137 119
-1.19339 3.01346 0.373468 164 151 141
-1.18027 3.01346 0.373468 152 121 95
-1.13813 3.08043 0.381767 156 130 122
-1.12741 3.08043 0.381767 158 124 102
-1.12205 3.08043 0.381767 173 143 114
-1.10864 3.08043 0.381767 162 132 116
-1.0694 3.15044 0.390444 147 104 84
-1.06391 3.15044 0.390444 178 147 129
-1.04198 3.15044 0.390444 129 96 75
-1.03924 3.15044 0.390444 154 103 76
-0.994661 3.2237 0.399524 163 124 99
-0.983438 3.2237 0.399524 141 102 76
-0.950837 3.30046 0.409037 203 167 144
-0.942219 3.30046 0.409037 187 155 139
-0.89913 3.30046 0.409037 163 133 108
-0.698046 2.82896 0.350603 170 158 136
-0.617171 3.55434 0.440501 19 33 48
-0.610984 3.55434 0.440501 27 25 27
-0.561487 3.55434 0.440501 39 36 34
-0.536575 3.64787 0.452093 54 44 33
-0.51435 3.64787 0.452093 7 15 26
-0.508 3.64787 0.452093 3 3 5
-0.4826 3.64787 0.452093 50 46 48
-0.47625 3.64787 0.452093 30 24 20
-0.288925 3.64787 0.452093 158 110 83
-0.0889 3.64787 0.452093 75 100 28
-0.0508 3.64787 0.452093 47 67 0
-0.03175 3.64787 0.452093 87 110 43
-0.0254 3.64787 0.452093 96 138 79
-0.022225 3.64787 0.452093 78 97 37
-0.01905 3.64787 0.452093 96 80 36
-0.015875 3.64787 0.452093 150 122 81
-0.0127 3.64787 0.452093 131 108 72
-0.009525 3.64787 0.452093 89 82 35
-0.00635 3.64787 0.452093 111 101 48
-0.003175 3.64787 0.452093 98 90 32
0.00635 3.64787 0.452093 111 104 49
0.015875 3.64787 0.452093 185 152 117
0.0254 3.64787 0.452093 194 141 116
0.028575 3.64787 0.452093 172 121 92
0.04445 3.64787 0.452093 151 105 77
0.047625 3.64787 0.452093 172 124 90
0.053975 3.64787 0.452093 161 109 76
0.05715 3.64787 0.452093 98 74 34
0.0635 3.64787 0.452093 157 121 81
0.066675 3.64787 0.452093 186 137 97
0.06985 3.64787 0.452093 145 110 64
0.0889 3.64787 0.452093 136 99 70
0.098425 3.64787 0.452093 178 132 95
0.10795 3.64787 0.452093 134 118 83
0.14605 3.64787 0.452093 155 104 71
0.15875 3.64787 0.452093 182 139 124
0.18415 3.64787 0.452093 154 108 81
0.187325 3.64787 0.452093 158 124 103
0.1905 3.64787 0.452093 193 155 136
0.20955 3.64787 0.452093 198 146 124
0.212725 3.64787 0.452093 185 128 99
0.225425 3.64787 0.452093 184 133 106
0.254 3.64787 0.452093 146 111 92
0.257175 3.64787 0.452093 181 148 131
0.288582 3.74646 0.464312 190 141 117
0.307975 3.64787 0.452093 181 141 126
0.327025 3.64787 0.452093 115 68 50
0.3302 3.64787 0.452093 49 25 13
0.33655 3.64787 0.452093 160 154 150
0.339725 3.64787 0.452093 205 192 188
0.3429 3.64787 0.452093 192 179 167
0.352425 3.64787 0.452093 152 138 112
0.3556 3.64787 0.452093 175 144 115
0.396875 3.64787 0.452093 123 76 46
0.40005 3.64787 0.452093 138 106 76
0.4191 3.64787 0.452093 151 107 77
0.428625 3.64787 0.452093 150 106 70
0.4318 3.64787 0.452093 115 89 53
0.434975 3.64787 0.452093 149 118 86
0.498475 3.64787 0.452093 96 103 4
0.50165 3.64787 0.452093 100 105 15
0.504825 3.64787 0.452093 115 125 43
0.511175 3.64787 0.452093 135 143 62
0.52705 3.64787 0.452093 152 120 79
0.530225 3.64787 0.452093 170 150 135
0.5334 3.64787 0.452093 182 167 159
0.60325 3.64787 0.452093 176 132 107
0.714375 3.64787 0.452093 156 103 76
0.864658 3.55434 0.440501 161 140 130
0.867752 3.55434 0.440501 184 163 157
0.923437 3.55434 0.440501 147 105 77
0.985308 3.55434 0.440501 169 135 124
1.08283 3.46548 0.429488 150 107 81
1.17031 3.46548 0.429488 122 72 50
1.17935 3.46548 0.429488 178 161 151
1.18237 3.46548 0.429488 202 178 166
1.19444 3.46548 0.429488 173 131 109
0.425603 0.955994 0.11848 58 49 38
0.426435 0.955994 0.11848 106 96 86
0.428932 0.955994 0.11848 95 88 90
0.429764 0.955994 0.11848 114 110 110
0.431428 0.955994 0.11848 92 77 86
0.437976 0.949446 0.117668 82 79 98
0.446077 0.942987 0.116868 127 125 126
0.46059 0.936616 0.116078 43 36 57
0.472478 0.93033 0.115299 135 133 128
-0.908988 1.57522 0.193857 181 157 111
-0.895386 1.55752 0.191679 176 146 102
-0.89403 1.55752 0.191679 169 135 86
-1.45135 2.71802 0.334498 186 151 108
-1.43479 2.71802 0.334498 163 127 84
-1.41113 2.71802 0.334498 128 104 86
-1.39221 2.71802 0.334498 116 91 74
-1.3923 2.77238 0.341188 146 121 110
-1.16439 2.61546 0.321875 72 72 69
-1.16211 2.61546 0.321875 45 46 43
-1.15983 2.61546 0.321875 26 27 23
-1.15756 2.61546 0.321875 7 6 4
-1.15528 2.61546 0.321875 7 2 1
-1.153 2.61546 0.321875 12 3 1
-1.21961 3.01346 0.370856 147 126 111
-1.20388 3.01346 0.370856 158 112 79
-1.19601 3.01346 0.370856 157 135 115
-1.19339 3.01346 0.370856 163 150 142
-0.904875 2.34948 0.289142 165 126 98
-1.13813 3.08043 0.379098 161 133 119
-1.13545 3.08043 0.379098 125 93 74
-1.0694 3.15044 0.387714 148 108 87
-1.0502 3.15044 0.387714 154 129 113
-0.980632 3.2237 0.39673 170 126 95
-0.968073 3.30046 0.406176 177 155 135
-0.962327 3.30046 0.406176 176 138 118
-0.950837 3.30046 0.406176 207 165 140
-0.942219 3.30046 0.406176 188 157 141
-0.902002 3.30046 0.406176 188 159 137
-0.89913 3.30046 0.406176 168 141 116
-0.698046 2.82896 0.348151 169 156 132
-0.617171 3.55434 0.43742 14 33 44
-0.574675 3.64787 0.448931 43 39 33
-0.5715 3.64787 0.448931 35 27 12
-0.5334 3.64787 0.448931 40 29 24
-0.508 3.64787 0.448931 2 3 4
-0.4826 3.64787 0.448931 40 37 36
-0.479425 3.64787 0.448931 63 59 62
-0.47625 3.64787 0.448931 32 28 29
-0.473075 3.64787 0.448931 10 6 7
-0.4826 3.85053 0.473872 49 34 28
-0.278799 3.74646 0.461065 193 145 117
-0.092075 3.64787 0.448931 102 124 54
-0.0635 3.64787 0.448931 36 75 9
-0.053975 3.64787 0.448931 54 96 2
-0.0508 3.64787 0.448931 56 70 0
-0.03175 3.64787 0.448931 82 86 31
-0.028575 3.64787 0.448931 50 81 19
-0.022225 3.64787 0.448931 115 113 67
-0.01905 3.64787 0.448931 123 99 56
-0.015875 3.64787 0.448931 118 104 59
-0.0127 3.64787 0.448931 93 91 43
-0.003175 3.64787 0.448931 109 110 55
0.003175 3.64787 0.448931 114 102 49
0.00635 3.64787 0.448931 88 97 35
0.015875 3.64787 0.448931 188 152 120
0.028575 3.64787 0.448931 167 121 88
0.04445 3.64787 0.448931 152 104 77
0.053975 3.64787 0.448931 163 111 79
0.05715 3.64787 0.448931 100 71 28
0.0635 3.64787 0.448931 186 150 108
0.06985 3.64787 0.448931 149 113 68
0.0762 3.64787 0.448931 168 138 103
0.085725 3.64787 0.448931 132 109 67
0.092075 3.64787 0.448931 148 112 81
0.104775 3.64787 0.448931 140 126 85
0.111125 3.64787 0.448931 188 156 123
0.155575 3.64787 0.448931 131 94 63
0.15875 3.64787 0.448931 185 142 125
0.1905 3.64787 0.448931 193 155 138
0.225425 3.64787 0.448931 181 130 105
0.238125 3.64787 0.448931 204 161 138
0.254 3.64787 0.448931 155 117 97
0.257175 3.64787 0.448931 182 146 131
0.301625 3.64787 0.448931 157 113 88
0.307975 3.64787 0.448931 184 140 124
0.3302 3.64787 0.448931 41 25 11
0.33655 3.64787 0.448931 151 147 144
0.339725 3.64787 0.448931 199 189 184
0.352425 3.64787 0.448931 161 140 114
0.3683 3.64787 0.448931 162 138 100
0.371475 3.64787 0.448931 168 142 101
0.396875 3.64787 0.448931 125 81 47
0.40005 3.64787 0.448931 136 106 76
0.403225 3.64787 0.448931 185 138 118
0.4064 3.64787 0.448931 150 104 81
0.409575 3.64787 0.448931 122 89 60
0.428625 3.64787 0.448931 170 121 94
0.5334 3.64787 0.448931 174 155 147
0.60325 3.64787 0.448931 182 133 113
0.714375 3.64787 0.448931 155 101 78
0.722353 3.55434 0.43742 190 155 141
0.861565 3.55434 0.43742 159 122 106
0.867752 3.55434 0.43742 183 161 151
0.923437 3.55434 0.43742 134 97 69
1.06265 3.55434 0.43742 150 141 97
1.12506 3.46548 0.426485 143 119 66
1.16729 3.46548 0.426485 166 107 84
1.17031 3.46548 0.426485 117 68 48
1.17332 3.46548 0.426485 59 42 27
1.17634 3.46548 0.426485 114 109 96
1.17935 3.46548 0.426485 176 160 148
1.18237 3.46548 0.426485 197 177 162
0.426435 0.955994 0.117651 105 93 84
0.428932 0.955994 0.117651 97 88 92
0.431428 0.955994 0.117651 98 85 92
0.434671 0.949446 0.116845 150 144 143
0.437976 0.949446 0.116845 84 77 99
0.446077 0.942987 0.11605 121 120 121
0.447718 0.942987 0.11605 144 142 149
0.451001 0.942987 0.11605 137 137 139
0.46059 0.936616 0.115266 46 46 70
-0.908942 1.55752 0.190329 162 124 71
-0.900762 1.57522 0.192492 172 137 87
-0.899391 1.57522 0.192492 168 133 82
-0.889794 1.57522 0.192492 137 102 48
-0.888423 1.57522 0.192492 127 99 47
-1.45135 2.71802 0.332142 179 146 108
-1.43479 2.71802 0.332142 161 121 77
-1.39457 2.71802 0.332142 128 102 89
-1.38506 2.77238 0.338785 130 101 80
-1.18986 2.38999 0.292056 156 134 123
-1.36817 2.77238 0.338785 129 111 100
-1.16439 2.61546 0.319609 14 7 3
-1.16211 2.61546 0.319609 11 3 1
-1.15983 2.61546 0.319609 13 4 3
-1.21961 3.01346 0.368245 149 126 115
-1.20388 3.01346 0.368245 155 113 78
-1.19339 3.01346 0.368245 162 147 143
-1.18907 3.08043 0.376428 183 135 109
-1.16762 3.08043 0.376428 166 127 96
-1.13813 3.08043 0.376428 161 133 119
-1.10596 3.08043 0.376428 180 156 137
-1.0694 3.15044 0.384983 154 115 89
-0.994661 3.2237 0.393936 164 131 104
-0.980632 3.2237 0.393936 171 125 93
-0.973818 3.30046 0.403316 197 172 156
-0.95371 3.30046 0.403316 175 124 105
-0.950837 3.30046 0.403316 207 164 139
-0.942219 3.30046 0.403316 190 158 146
-0.902002 3.30046 0.403316 184 155 138
-0.896257 3.30046 0.403316 162 128 102
-0.89899 3.38095 0.413153 189 157 139
-0.698046 2.82896 0.345699 171 155 133
-0.657388 3.55434 0.43434 96 85 79
-0.651201 3.55434 0.43434 25 16 18
-0.617171 3.55434 0.43434 5 32 41
-0.558393 3.55434 0.43434 36 27 14
-0.508 3.64787 0.44577 1 3 5
-0.4826 3.64787 0.44577 32 28 26
-0.479425 3.64787 0.44577 59 54 58
-0.473075 3.64787 0.44577 11 6 8
-0.09525 3.64787 0.44577 51 75 8
-0.092075 3.64787 0.44577 80 103 38
-0.05715 3.64787 0.44577 53 95 25
-0.028575 3.64787 0.44577 37 60 5
-0.0254 3.64787 0.44577 44 82 23
-0.022225 3.64787 0.44577 85 89 46
-0.01905 3.64787 0.44577 98 96 48
-0.015875 3.64787 0.44577 85 111 43
-0.009525 3.64787 0.44577 84 91 22
-2.25605e-16 3.64787 0.44577 93 103 48
0.009525 3.64787 0.44577 151 134 81
0.0127 3.64787 0.44577 169 131 92
0.028575 3.64787 0.44577 166 118 88
0.0635 3.64787 0.44577 183 138 99
0.09525 3.64787 0.44577 196 148 119
0.111125 3.64787 0.44577 186 154 124
0.1143 3.64787 0.44577 213 172 147
0.15875 3.64787 0.44577 186 141 121
0.257175 3.64787 0.44577 183 147 131
0.301625 3.64787 0.44577 153 104 81
0.3048 3.64787 0.44577 163 125 109
0.307975 3.64787 0.44577 190 146 131
0.31115 3.64787 0.44577 196 156 137
0.327025 3.64787 0.44577 85 53 31
0.3302 3.64787 0.44577 37 26 10
0.333375 3.64787 0.44577 60 57 50
0.33655 3.64787 0.44577 176 170 166
0.339725 3.64787 0.44577 208 196 192
0.346075 3.64787 0.44577 184 172 153
0.352425 3.64787 0.44577 164 139 109
0.3683 3.64787 0.44577 156 132 91
0.40005 3.64787 0.44577 136 105 80
0.4064 3.64787 0.44577 141 101 71
0.41275 3.64787 0.44577 150 111 83
0.5334 3.64787 0.44577 182 159 152
0.5461 3.64787 0.44577 168 136 119
0.549275 3.64787 0.44577 156 119 98
0.55245 3.64787 0.44577 135 105 79
0.60325 3.64787 0.44577 187 136 119
0.619125 3.64787 0.44577 167 108 74
0.861565 3.55434 0.43434 153 116 96
0.864658 3.55434 0.43434 157 135 121
0.867752 3.55434 0.43434 185 163 154
0.985308 3.55434 0.43434 168 139 125
0.991495 3.55434 0.43434 186 154 144
1.05646 3.55434 0.43434 121 99 56
1.06775 3.46548 0.423481 153 127 77
1.07077 3.46548 0.423481 178 147 112
1.10905 3.55434 0.43434 168 117 91
1.11215 3.55434 0.43434 141 102 74
1.14618 3.46548 0.423481 162 137 102
1.17332 3.46548 0.423481 52 39 29
1.17634 3.46548 0.423481 114 108 100
1.17935 3.46548 0.423481 175 159 148
1.1884 3.46548 0.423481 180 154 147
1.19444 3.46548 0.423481 139 98 76
0.426435 0.955994 0.116822 105 96 89
0.428932 0.955994 0.116822 99 90 92
0.434671 0.949446 0.116022 147 138 138
0.437976 0.949446 0.116022 90 83 99
0.438802 0.949446 0.116022 70 64 67
0.461405 0.936616 0.114454 41 38 56
-0.909035 1.59332 0.193323 190 159 111
-0.907649 1.59332 0.193323 190 155 105
-1.43479 2.71802 0.329787 161 116 79
-1.4064 2.71802 0.329787 135 107 96
-1.39457 2.71802 0.329787 116 90 78
-1.38506 2.77238 0.336382 132 103 83
-1.18986 2.38999 0.289985 154 132 118
-1.36817 2.77238 0.336382 131 109 97
-1.21961 3.01346 0.365633 142 122 114
-1.20388 3.01346 0.365633 157 114 79
-1.19339 3.01346 0.365633 160 144 140
-1.18027 3.01346 0.365633 163 130 113
-1.17765 3.01346 0.365633 162 115 86
-1.16762 3.08043 0.373758 165 128 98
-1.13813 3.08043 0.373758 161 132 118
-1.11936 3.08043 0.373758 166 139 116
-1.114 3.08043 0.373758 171 142 126
-1.09408 3.15044 0.382253 164 120 95
-1.0694 3.15044 0.382253 156 119 91
-1.06666 3.15044 0.382253 128 86 64
-1.0143 3.2237 0.391142 179 151 135
-0.618331 1.92527 0.233599 164 131 108
-0.95538 3.2237 0.391142 175 150 141
-0.973818 3.30046 0.400455 194 171 155
-0.956582 3.30046 0.400455 195 152 133
-0.950837 3.30046 0.400455 205 161 139
-0.947964 3.30046 0.400455 215 181 163
-0.902002 3.30046 0.400455 184 153 136
-0.698046 2.82896 0.343247 169 156 132
-0.651201 3.55434 0.43126 37 27 28
-0.617171 3.55434 0.43126 6 31 41
-0.558393 3.55434 0.43126 33 23 18
-0.51435 3.64787 0.442609 11 18 32
-0.508 3.64787 0.442609 1 2 5
-0.479425 3.64787 0.442609 59 54 56
-0.473075 3.64787 0.442609 17 13 15
-0.09525 3.64787 0.442609 3 40 0
-0.0889 3.64787 0.442609 30 74 15
-0.053975 3.64787 0.442609 29 44 0
-0.0508 3.64787 0.442609 27 28 0
-0.047625 3.64787 0.442609 48 39 2
-0.01905 3.64787 0.442609 61 93 17
-0.015875 3.64787 0.442609 54 114 30
-0.009525 3.64787 0.442609 98 120 46
-0.00635 3.64787 0.442609 129 138 76
-2.25605e-16 3.64787 0.442609 24 54 4
0.003175 3.64787 0.442609 74 78 34
0.00635 3.64787 0.442609 106 93 44
0.009525 3.64787 0.442609 145 110 62
0.0127 3.64787 0.442609 178 136 102
0.015875 3.64787 0.442609 194 153 129
0.01905 3.64787 0.442609 181 133 101
0.0254 3.64787 0.442609 186 136 106
0.028575 3.64787 0.442609 164 114 86
0.04445 3.64787 0.442609 151 105 78
0.0508 3.64787 0.442609 190 142 104
0.0635 3.64787 0.442609 181 132 97
0.073025 3.64787 0.442609 141 119 76
0.079375 3.64787 0.442609 165 140 103
0.09525 3.64787 0.442609 194 146 116
0.098425 3.64787 0.442609 196 139 110
0.1016 3.64787 0.442609 187 134 105
0.104775 3.64787 0.442609 175 134 101
0.10795 3.64787 0.442609 152 124 91
0.1143 3.64787 0.442609 214 176 151
0.15875 3.64787 0.442609 185 142 124
0.238125 3.64787 0.442609 196 153 127
0.254 3.64787 0.442609 138 107 85
0.257175 3.64787 0.442609 181 142 127
0.27305 3.64787 0.442609 196 151 116
0.288925 3.64787 0.442609 180 136 119
0.32385 3.64787 0.442609 152 101 76
0.327025 3.64787 0.442609 79 49 23
0.3302 3.64787 0.442609 42 25 12
0.333375 3.64787 0.442609 53 51 42
0.33655 3.64787 0.442609 172 167 161
0.346075 3.64787 0.442609 173 161 147
0.352425 3.64787 0.442609 163 143 109
0.40005 3.64787 0.442609 134 105 81
0.403225 3.64787 0.442609 140 103 78
0.409575 3.64787 0.442609 140 112 70
0.52705 3.64787 0.442609 158 108 75
0.530225 3.64787 0.442609 166 141 129
0.5334 3.64787 0.442609 179 156 150
0.549275 3.64787 0.442609 144 112 86
0.619125 3.64787 0.442609 162 103 71
0.64135 3.64787 0.442609 137 92 68
0.644525 3.64787 0.442609 163 115 93
0.706885 3.55434 0.43126 159 122 100
0.75565 3.64787 0.442609 177 141 118
0.758825 3.64787 0.442609 171 127 97
0.861565 3.55434 0.43126 150 112 92
0.864658 3.55434 0.43126 157 135 126
0.867752 3.55434 0.43126 187 165 158
0.945092 3.55434 0.43126 192 147 115
1.03481 3.55434 0.43126 142 114 72
1.05955 3.55434 0.43126 157 135 93
1.10905 3.55434 0.43126 165 120 90
1.11215 3.55434 0.43126 142 112 79
1.14316 3.46548 0.420478 128 118 82
1.14618 3.46548 0.420478 166 137 106
1.17332 3.46548 0.420478 46 37 30
1.17634 3.46548 0.420478 110 105 98
1.17935 3.46548 0.420478 170 156 145
1.1884 3.46548 0.420478 172 145 137
1.19142 3.46548 0.420478 152 116 102
1.19444 3.46548 0.420478 145 101 77
0.426435 0.955994 0.115994 97 91 80
0.428932 0.955994 0.115994 102 94 93
0.437976 0.949446 0.115199 88 84 98
0.438802 0.949446 0.115199 76 70 72
0.446077 0.942987 0.114416 134 135 137
0.533499 1.08296 0.131399 104 99 111
0.46059 0.936616 0.113643 78 77 92
-0.893907 1.57522 0.189761 184 151 98
-0.892536 1.57522 0.189761 178 143 90
-0.889794 1.57522 0.189761 167 135 81
-0.885681 1.57522 0.189761 146 117 64
-0.891007 1.59332 0.191942 135 106 63
-0.88962 1.59332 0.191942 141 104 60
-0.888234 1.59332 0.191942 162 120 71
-1.43479 2.71802 0.327431 162 118 84
-1.43006 2.71802 0.327431 128 108 99
-1.42059 2.71802 0.327431 144 117 104
-1.39457 2.71802 0.327431 115 92 71
-1.38506 2.77238 0.33398 131 104 90
-1.18986 2.38999 0.287914 151 129 116
-1.18715 2.61546 0.315075 57 56 54
-1.18487 2.61546 0.315075 35 35 32
-1.1826 2.61546 0.315075 14 15 10
-1.18032 2.61546 0.315075 9 5 2
-1.17804 2.61546 0.315075 12 4 1
-1.17577 2.61546 0.315075 13 6 2
-1.21961 3.01346 0.363021 142 123 117
-1.2065 3.01346 0.363021 164 124 100
-1.19339 3.01346 0.363021 159 145 138
-1.17765 3.01346 0.363021 163 116 89
-1.16762 3.08043 0.371089 169 133 105
-1.11668 3.08043 0.371089 135 118 94
-1.114 3.08043 0.371089 171 143 121
-1.09408 3.15044 0.379522 158 117 93
-1.0694 3.15044 0.379522 159 118 94
-1.06391 3.15044 0.379522 171 137 122
-1.0143 3.2237 0.388349 178 154 136
-0.97502 3.2237 0.388349 160 123 99
-0.950837 3.30046 0.397595 209 167 147
-0.904875 3.30046 0.397595 180 140 107
-0.902002 3.30046 0.397595 183 153 128
-0.698046 2.82896 0.340796 168 156 132
-0.41653 1.65023 0.198797 179 138 111
-0.660481 3.55434 0.428179 56 49 45
-0.651201 3.55434 0.428179 42 33 29
-0.617171 3.55434 0.428179 12 24 37
-0.558393 3.55434 0.428179 31 23 17
-0.51435 3.64787 0.439447 12 23 36
-0.508 3.64787 0.439447 2 3 4
-0.479425 3.64787 0.439447 58 53 50
-0.473075 3.64787 0.439447 28 23 27
-0.4699 3.64787 0.439447 12 5 5
-0.257175 3.64787 0.439447 178 130 99
-0.0635 3.64787 0.439447 43 90 27
-0.05715 3.64787 0.439447 18 47 0
-0.0508 3.64787 0.439447 24 22 0
-0.04445 3.64787 0.439447 46 49 0
-0.01905 3.64787 0.439447 65 106 19
-0.009525 3.64787 0.439447 79 115 38
-0.00635 3.64787 0.439447 93 127 60
-2.25605e-16 3.64787 0.439447 47 72 28
0.009525 3.64787 0.439447 168 119 82
0.0127 3.64787 0.439447 180 134 103
0.01905 3.64787 0.439447 170 132 94
0.04445 3.64787 0.439447 152 107 82
0.0508 3.64787 0.439447 187 144 107
0.05715 3.64787 0.439447 116 87 41
0.0635 3.64787 0.439447 166 126 80
0.066675 3.64787 0.439447 190 146 102
0.073025 3.64787 0.439447 142 123 81
0.136525 3.64787 0.439447 139 120 80
0.155575 3.64787 0.439447 151 118 93
0.1905 3.64787 0.439447 177 146 126
0.254 3.64787 0.439447 135 107 85
0.257175 3.64787 0.439447 179 144 130
0.27305 3.64787 0.439447 181 133 99
0.28575 3.64787 0.439447 153 114 97
0.288925 3.64787 0.439447 176 137 117
0.3175 3.64787 0.439447 172 129 101
0.32385 3.64787 0.439447 149 101 72
0.327025 3.64787 0.439447 84 54 29
0.396875 3.64787 0.439447 133 93 61
0.403225 3.64787 0.439447 146 112 83
0.4064 3.64787 0.439447 172 137 100
0.409575 3.64787 0.439447 165 135 90
0.619125 3.64787 0.439447 163 107 73
0.626452 3.55434 0.428179 158 117 86
0.706885 3.55434 0.428179 158 121 103
0.861565 3.55434 0.428179 152 113 92
0.864658 3.55434 0.428179 156 136 123
0.867752 3.55434 0.428179 185 168 160
1.07982 3.46548 0.417475 169 135 97
1.08283 3.46548 0.417475 145 125 84
1.14316 3.46548 0.417475 145 124 90
1.14618 3.46548 0.417475 172 138 111
1.19142 3.46548 0.417475 149 118 101
0.428932 0.955994 0.115165 102 92 94
0.437976 0.949446 0.114377 83 80 96
0.446077 0.942987 0.113599 137 138 136
0.46059 0.936616 0.112831 95 92 106
0.461405 0.936616 0.112831 66 65 80
-1.43242 2.71802 0.325076 126 91 63
-1.39457 2.71802 0.325076 106 86 64
-1.38506 2.77238 0.331577 132 105 97
-1.20321 2.52035 0.301434 98 98 95
-1.20102 2.52035 0.301434 82 86 85
-1.19398 2.61546 0.312808 47 46 44
-1.1917 2.61546 0.312808 25 24 21
-1.18943 2.61546 0.312808 12 8 4
-1.18715 2.61546 0.312808 10 4 1
-1.18487 2.61546 0.312808 7 3 1
-1.21961 3.01346 0.36041 139 119 112
-1.19339 3.01346 0.36041 163 142 136
-1.17765 3.01346 0.36041 160 118 86
-1.16762 3.08043 0.368419 172 135 108
-1.13813 3.08043 0.368419 151 126 111
-1.09682 3.15044 0.376792 177 139 120
-1.09408 3.15044 0.376792 161 118 92
-1.0694 3.15044 0.376792 161 120 99
-1.06666 3.15044 0.376792 138 99 68
-1.06391 3.15044 0.376792 163 133 106
-1.0143 3.2237 0.385555 178 152 135
-0.97502 3.2237 0.385555 151 115 90
-0.972215 3.2237 0.385555 179 140 118
-0.959455 3.30046 0.394735 205 171 154
-0.896047 3.38095 0.404362 191 169 151
-0.698046 2.82896 0.338344 166 155 130
-0.660481 3.55434 0.425099 53 47 43
-0.617171 3.55434 0.425099 10 25 37
-0.558393 3.55434 0.425099 28 20 12
-0.52705 3.64787 0.436286 34 20 13
-0.51435 3.64787 0.436286 20 30 40
-0.508 3.64787 0.436286 2 3 4
-0.479425 3.64787 0.436286 59 49 42
-0.473075 3.64787 0.436286 40 36 39
-0.4699 3.64787 0.436286 26 14 10
-0.0635 3.64787 0.436286 10 61 6
-0.01905 3.64787 0.436286 47 107 7
-0.009525 3.64787 0.436286 49 103 25
0.01905 3.64787 0.436286 139 127 80
0.022225 3.64787 0.436286 142 127 72
0.0254 3.64787 0.436286 174 137 97
0.04445 3.64787 0.436286 149 109 81
0.0508 3.64787 0.436286 159 124 91
0.05715 3.64787 0.436286 140 109 70
0.066675 3.64787 0.436286 189 151 108
0.073025 3.64787 0.436286 152 127 83
0.123825 3.64787 0.436286 137 113 78
0.136525 3.64787 0.436286 148 121 81
0.155575 3.64787 0.436286 136 107 79
0.15875 3.64787 0.436286 184 147 127
0.18415 3.64787 0.436286 160 124 90
0.238125 3.64787 0.436286 166 132 98
0.254 3.64787 0.436286 136 112 84
0.28575 3.64787 0.436286 148 113 85
0.288925 3.64787 0.436286 173 138 114
0.314325 3.64787 0.436286 170 135 100
0.403225 3.64787 0.436286 172 140 107
0.600075 3.64787 0.436286 199 169 144
0.619125 3.64787 0.436286 156 110 70
0.626452 3.55434 0.425099 152 123 85
0.629546 3.55434 0.425099 176 136 106
0.706885 3.55434 0.425099 157 122 105
0.861565 3.55434 0.425099 155 115 95
0.867752 3.55434 0.425099 175 164 154
0.911062 3.55434 0.425099 132 110 73
0.9398 3.64787 0.436286 111 100 63
1.05027 3.55434 0.425099 134 120 74
1.07077 3.46548 0.414471 184 147 112
1.07982 3.46548 0.414471 167 139 103
1.14316 3.46548 0.414471 159 127 99
1.14618 3.46548 0.414471 180 143 121
0.426435 0.955994 0.114337 79 65 54
0.427267 0.955994 0.114337 123 114 106
0.428932 0.955994 0.114337 99 89 93
0.437976 0.949446 0.113554 82 78 95
0.442934 0.949446 0.113554 152 152 157
0.446077 0.942987 0.112781 135 133 132
0.447718 0.942987 0.112781 155 153 159
0.46059 0.936616 0.112019 98 95 109
0.461405 0.936616 0.112019 80 73 88
-1.43242 2.71802 0.32272 121 79 61
-1.43006 2.71802 0.32272 127 103 93
-1.41113 2.71802 0.32272 131 104 84
-1.19626 2.61546 0.310542 6 3 1
-1.19398 2.61546 0.310542 6 1 1
-1.1917 2.61546 0.310542 8 3 1
-1.22486 3.01346 0.357798 181 164 157
-1.21961 3.01346 0.357798 147 121 111
-1.17765 3.01346 0.357798 163 120 87
-1.13813 3.08043 0.365749 142 123 109
-1.09408 3.15044 0.374062 160 120 96
-1.06666 3.15044 0.374062 147 105 76
-1.06391 3.15044 0.374062 169 133 109
-1.05295 3.15044 0.374062 171 140 114
-1.04746 3.15044 0.374062 158 117 101
-0.989049 3.2237 0.382761 178 141 114
-0.97502 3.2237 0.382761 152 112 91
-0.972215 3.2237 0.382761 182 139 114
-0.973818 3.30046 0.391874 204 176 164
-0.698046 2.82896 0.335892 171 157 134
-0.660481 3.55434 0.422018 50 45 43
-0.617171 3.55434 0.422018 5 23 35
-0.530225 3.64787 0.433124 59 38 26
-0.52705 3.64787 0.433124 33 21 7
-0.51435 3.64787 0.433124 17 29 41
-0.508 3.64787 0.433124 2 3 4
-0.479425 3.64787 0.433124 53 40 29
-0.473075 3.64787 0.433124 55 49 54
-0.4699 3.64787 0.433124 37 26 23
-0.257175 3.64787 0.433124 175 128 97
-0.073025 3.64787 0.433124 76 121 52
-0.06985 3.64787 0.433124 57 100 41
-0.066675 3.64787 0.433124 6 57 2
-0.053975 3.64787 0.433124 42 31 0
-0.0508 3.64787 0.433124 80 59 21
-0.015875 3.64787 0.433124 62 120 29
-0.003175 3.64787 0.433124 92 104 51
0.015875 3.64787 0.433124 160 136 98
0.01905 3.64787 0.433124 108 104 50
0.022225 3.64787 0.433124 142 130 72
0.047625 3.64787 0.433124 136 101 77
0.0508 3.64787 0.433124 128 94 64
0.066675 3.64787 0.433124 173 138 91
0.0762 3.64787 0.433124 140 117 72
0.123825 3.64787 0.433124 154 129 94
0.14605 3.64787 0.433124 180 138 102
0.15875 3.64787 0.433124 178 145 127
0.22225 3.64787 0.433124 152 118 81
0.257175 3.64787 0.433124 172 142 121
0.27305 3.64787 0.433124 172 133 102
0.28575 3.64787 0.433124 147 115 86
0.288925 3.64787 0.433124 171 140 114
0.3048 3.64787 0.433124 173 138 100
0.307975 3.64787 0.433124 185 142 103
0.31115 3.64787 0.433124 163 135 95
0.32385 3.64787 0.433124 112 83 57
0.396875 3.64787 0.433124 128 105 69
0.434649 3.55434 0.422018 62 83 100
0.437743 3.55434 0.422018 69 83 105
0.606425 3.64787 0.433124 181 151 122
0.629546 3.55434 0.422018 163 135 100
0.706885 3.55434 0.422018 158 127 105
0.861565 3.55434 0.422018 142 106 89
0.867752 3.55434 0.422018 161 151 139
1.07077 3.46548 0.411468 180 148 120
1.07982 3.46548 0.411468 170 140 105
1.08283 3.46548 0.411468 148 120 80
1.14014 3.46548 0.411468 151 109 81
0.427267 0.955994 0.113508 121 110 100
0.428932 0.955994 0.113508 101 93 94
0.437976 0.949446 0.112731 83 76 95
0.438802 0.949446 0.112731 80 74 74
0.439629 0.949446 0.112731 135 133 132
0.446077 0.942987 0.111964 138 135 134
0.447718 0.942987 0.111964 163 163 165
0.448539 0.942987 0.111964 138 136 153
0.476527 0.93033 0.110461 149 136 129
-1.43479 2.71802 0.320364 161 121 80
-1.43242 2.71802 0.320364 119 78 61
-1.43006 2.71802 0.320364 123 98 91
-1.22486 3.01346 0.355186 181 160 155
-1.21961 3.01346 0.355186 146 121 111
-1.17765 3.01346 0.355186 169 124 93
-1.16762 3.08043 0.363079 173 139 117
-1.13277 3.08043 0.363079 132 94 75
-1.10596 3.08043 0.363079 182 158 146
-1.09408 3.15044 0.371331 163 120 100
-1.06666 3.15044 0.371331 159 111 82
-1.05295 3.15044 0.371331 168 135 111
-1.04746 3.15044 0.371331 149 115 101
-0.989049 3.2237 0.379967 181 141 115
-0.977826 3.2237 0.379967 184 149 127
-0.97502 3.2237 0.379967 152 115 90
-0.972215 3.2237 0.379967 179 139 112
-0.698046 2.82896 0.33344 168 155 134
-0.617171 3.55434 0.418938 5 21 32
-0.523875 3.64787 0.429963 14 13 10
-0.51435 3.64787 0.429963 15 25 37
-0.508 3.64787 0.429963 2 4 5
-0.479425 3.64787 0.429963 38 24 14
-0.4699 3.64787 0.429963 40 34 35
-0.466725 3.64787 0.429963 22 14 8
-0.257175 3.64787 0.429963 181 133 101
-0.098425 3.64787 0.429963 28 36 0
-0.073025 3.64787 0.429963 56 97 34
-0.06985 3.64787 0.429963 11 52 5
-0.066675 3.64787 0.429963 50 83 39
-0.053975 3.64787 0.429963 69 50 13
-0.047625 3.64787 0.429963 105 82 36
-0.01905 3.64787 0.429963 65 122 32
-0.009525 3.64787 0.429963 52 92 15
-0.00635 3.64787 0.429963 91 101 41
-2.25605e-16 3.64787 0.429963 156 126 84
0.015875 3.64787 0.429963 136 124 74
0.0254 3.64787 0.429963 138 132 80
0.034925 3.64787 0.429963 169 139 109
0.047625 3.64787 0.429963 168 129 102
0.0508 3.64787 0.429963 142 106 74
0.05715 3.64787 0.429963 161 135 93
0.066675 3.64787 0.429963 149 123 74
0.073025 3.64787 0.429963 140 117 77
0.149225 3.64787 0.429963 162 116 81
0.155575 3.64787 0.429963 135 112 83
0.18415 3.64787 0.429963 142 125 89
0.22225 3.64787 0.429963 140 117 75
0.225425 3.64787 0.429963 166 136 103
0.254 3.64787 0.429963 123 107 74
0.32385 3.64787 0.429963 91 71 42
0.431556 3.55434 0.418938 61 78 102
0.459398 3.55434 0.418938 112 129 151
0.465585 3.55434 0.418938 86 110 136
0.468679 3.55434 0.418938 62 92 124
0.471772 3.55434 0.418938 58 85 113
0.768757 3.55434 0.418938 130 102 85
0.774944 3.55434 0.418938 135 108 94
0.778038 3.55434 0.418938 134 108 94
0.808974 3.55434 0.418938 160 145 142
0.971232 3.46548 0.408464 168 154 132
1.07077 3.46548 0.408464 166 146 111
1.07982 3.46548 0.408464 162 134 99
1.08283 3.46548 0.408464 134 112 79
1.17711 3.55434 0.418938 158 126 99
0.427267 0.955994 0.11268 115 108 98
0.437976 0.949446 0.111908 83 80 96
0.439629 0.949446 0.111908 140 140 137
0.765246 1.55752 0.18358 156 153 160
0.44936 0.942987 0.111147 119 117 134
0.534442 1.08296 0.127645 103 99 108
-1.43479 2.71802 0.318009 164 122 79
-1.43242 2.71802 0.318009 117 77 54
-1.43006 2.71802 0.318009 122 96 90
-1.22319 2.94934 0.345073 146 125 118
-1.22486 3.01346 0.352575 179 159 153
-1.21961 3.01346 0.352575 141 121 117
-1.17765 3.01346 0.352575 169 124 93
-0.238769 0.484682 0.0567078 173 133 110
-1.1569 3.08043 0.36041 173 145 135
-1.15422 3.08043 0.36041 155 119 105
-1.15154 3.08043 0.36041 148 110 84
-1.13277 3.08043 0.36041 134 91 71
-0.704893 1.89889 0.22217 187 156 144
-1.09408 3.15044 0.368601 162 123 99
-1.06666 3.15044 0.368601 156 113 88
-1.05295 3.15044 0.368601 166 133 106
-1.0502 3.15044 0.368601 177 145 127
-1.04746 3.15044 0.368601 149 114 97
-1.04472 3.15044 0.368601 173 140 118
-0.989049 3.2237 0.377173 182 142 118
-0.977826 3.2237 0.377173 182 150 124
-0.972215 3.2237 0.377173 180 137 110
-0.979563 3.30046 0.386153 202 171 153
-0.939346 3.30046 0.386153 190 161 134
-0.698046 2.82896 0.330989 168 156 131
-0.695584 2.82896 0.330989 181 174 158
-0.693122 2.82896 0.330989 152 157 153
-0.617171 3.55434 0.415857 3 19 27
-0.523875 3.64787 0.426801 19 15 13
-0.508 3.64787 0.426801 4 4 6
-0.47625 3.64787 0.426801 25 21 20
-0.473075 3.64787 0.426801 47 47 50
-0.466725 3.64787 0.426801 18 11 8
-0.441325 3.64787 0.426801 24 13 11
-0.073025 3.64787 0.426801 14 49 1
-0.06985 3.64787 0.426801 0 23 0
-0.0635 3.64787 0.426801 30 51 12
-0.01905 3.64787 0.426801 93 125 49
-0.0127 3.64787 0.426801 103 128 64
-0.009525 3.64787 0.426801 99 98 48
-0.00635 3.64787 0.426801 148 127 86
0.00635 3.64787 0.426801 145 129 65
0.009525 3.64787 0.426801 144 129 69
0.0127 3.64787 0.426801 127 123 63
0.015875 3.64787 0.426801 108 118 57
0.01905 3.64787 0.426801 88 110 44
0.022225 3.64787 0.426801 76 110 37
0.0254 3.64787 0.426801 112 122 59
0.03175 3.64787 0.426801 157 133 90
0.034925 3.64787 0.426801 179 149 123
0.0508 3.64787 0.426801 149 113 79
0.066675 3.64787 0.426801 105 100 53
0.06985 3.64787 0.426801 130 122 78
0.14605 3.64787 0.426801 154 120 81
0.15875 3.64787 0.426801 160 140 113
0.193675 3.64787 0.426801 176 150 114
0.22225 3.64787 0.426801 138 121 78
0.225425 3.64787 0.426801 160 134 102
0.231775 3.64787 0.426801 139 114 80
0.254 3.64787 0.426801 116 107 71
0.257175 3.64787 0.426801 132 118 83
0.26035 3.64787 0.426801 133 111 76
0.62738 3.46548 0.405461 137 131 90
0.630396 3.46548 0.405461 138 130 90
0.663575 3.55434 0.415857 149 135 96
0.82109 3.85053 0.450512 95 84 77
0.768757 3.55434 0.415857 102 89 87
0.771851 3.55434 0.415857 103 91 90
0.774944 3.55434 0.415857 105 92 93
0.778038 3.55434 0.415857 105 93 94
0.808974 3.55434 0.415857 137 132 139
0.818254 3.55434 0.415857 149 140 139
0.817404 3.46548 0.405461 157 130 98
1.07378 3.46548 0.405461 155 145 112
1.0768 3.46548 0.405461 158 146 114
0.427267 0.955994 0.111851 109 102 92
0.437976 0.949446 0.111085 84 80 95
0.439629 0.949446 0.111085 143 142 136
0.442934 0.949446 0.111085 155 152 158
0.446077 0.942987 0.11033 127 125 123
0.534442 1.08296 0.126707 107 108 115
0.472478 0.93033 0.108849 108 101 99
-1.43479 2.71802 0.315653 166 125 79
-1.43242 2.71802 0.315653 121 76 50
-1.43006 2.71802 0.315653 126 96 88
-1.21179 2.43191 0.282426 153 144 143
-1.2302 2.47534 0.28747 169 161 158
-1.22804 2.47534 0.28747 164 156 152
-1.22589 2.47534 0.28747 156 144 141
-1.22486 3.01346 0.349963 173 156 151
-1.21961 3.01346 0.349963 138 126 120
-1.17765 3.01346 0.349963 170 124 95
-1.16978 3.01346 0.349963 178 135 110
-1.1569 3.08043 0.35774 173 151 138
-1.15422 3.08043 0.35774 158 129 110
-1.13277 3.08043 0.35774 137 92 74
-1.09682 3.15044 0.365871 181 144 127
-1.09408 3.15044 0.365871 163 124 101
-1.09133 3.15044 0.365871 184 139 110
-1.06666 3.15044 0.365871 151 112 85
-1.05295 3.15044 0.365871 170 137 107
-1.04746 3.15044 0.365871 150 113 97
-1.04472 3.15044 0.365871 173 138 119
-0.989049 3.2237 0.374379 181 143 120
-0.977826 3.2237 0.374379 185 153 125
-0.972215 3.2237 0.374379 183 138 109
-0.958185 3.2237 0.374379 201 167 151
-0.698046 2.82896 0.328537 169 157 130
-0.695584 2.82896 0.328537 178 174 161
-0.523875 3.64787 0.42364 25 22 20
-0.473075 3.64787 0.42364 34 34 35
-0.466725 3.64787 0.42364 25 21 22
-0.45085 3.64787 0.42364 49 31 25
-0.073025 3.64787 0.42364 0 23 0
-0.066675 3.64787 0.42364 6 23 1
-0.0635 3.64787 0.42364 8 27 0
-0.053975 3.64787 0.42364 23 26 0
-0.015875 3.64787 0.42364 101 123 54
-0.00635 3.64787 0.42364 150 129 85
0.009525 3.64787 0.42364 119 131 66
0.01905 3.64787 0.42364 110 131 67
0.0254 3.64787 0.42364 135 134 84
0.15875 3.64787 0.42364 141 131 95
0.161925 3.64787 0.42364 170 150 118
0.1778 3.64787 0.42364 139 133 92
0.231775 3.64787 0.42364 125 120 77
0.24765 3.64787 0.42364 160 145 106
0.254 3.64787 0.42364 134 128 91
0.26035 3.64787 0.42364 124 114 73
0.369684 3.55434 0.412777 121 132 83
0.7239 3.30046 0.383293 100 87 84
0.809625 3.64787 0.42364 102 88 84
0.8128 3.64787 0.42364 107 95 91
0.815975 3.64787 0.42364 108 98 98
0.81915 3.64787 0.42364 113 102 103
0.822325 3.64787 0.42364 116 107 106
0.8255 3.64787 0.42364 117 108 110
0.828675 3.64787 0.42364 119 111 117
0.821348 3.55434 0.412777 136 132 135
0.824442 3.55434 0.412777 141 136 136
0.886313 3.55434 0.412777 143 135 91
1.08283 3.46548 0.402458 102 106 72
1.15479 3.30046 0.383293 42 48 30
1.15767 3.30046 0.383293 14 34 20
0.427267 0.955994 0.111023 108 102 90
0.428932 0.955994 0.111023 100 96 96
0.437976 0.949446 0.110262 87 82 98
0.438802 0.949446 0.110262 81 79 76
0.439629 0.949446 0.110262 139 138 133
0.442934 0.949446 0.110262 149 146 155
0.446897 0.942987 0.109512 143 142 144
0.448539 0.942987 0.109512 145 142 149
0.452643 0.942987 0.109512 95 93 108
0.478956 0.93033 0.108042 136 133 132
-0.914364 1.55752 0.17953 148 96 45
-1.21602 2.43191 0.280319 152 143 140
-1.22575 2.94934 0.339961 135 107 92
-1.17765 3.01346 0.347351 165 128 96
-1.17503 3.01346 0.347351 174 116 74
-1.16978 3.01346 0.347351 180 133 104
-1.1569 3.08043 0.35507 177 153 138
-1.15154 3.08043 0.35507 158 119 98
-1.13277 3.08043 0.35507 138 95 75
-1.12473 3.08043 0.35507 170 138 122
-1.09682 3.15044 0.36314 174 140 119
-1.09408 3.15044 0.36314 159 123 98
-1.06666 3.15044 0.36314 150 115 84
-1.05295 3.15044 0.36314 170 138 110
-1.04746 3.15044 0.36314 140 112 91
-1.04472 3.15044 0.36314 171 138 118
-0.989049 3.2237 0.371585 180 145 118
-0.977826 3.2237 0.371585 185 153 122
-0.97502 3.2237 0.371585 166 131 103
-0.979563 3.30046 0.380433 201 165 147
-0.91062 3.30046 0.380433 203 168 140
-0.614078 3.55434 0.409697 15 32 46
-0.52705 3.64787 0.420478 32 33 28
-0.51435 3.64787 0.420478 19 31 39
-0.511175 3.64787 0.420478 27 42 52
-0.508 3.64787 0.420478 8 14 21
-0.4699 3.64787 0.420478 46 45 49
-0.46355 3.64787 0.420478 19 16 9
0.015875 3.64787 0.420478 115 123 66
0.022225 3.64787 0.420478 138 139 93
0.165507 3.55434 0.409697 140 129 86
0.225425 3.64787 0.420478 143 139 104
0.351122 3.55434 0.409697 103 127 82
0.62738 3.46548 0.399454 105 112 76
0.696183 3.74646 0.431842 115 102 86
0.775607 3.30046 0.380433 143 137 135
0.904875 3.46548 0.399454 101 120 72
1.15479 3.30046 0.380433 13 30 16
1.22295 3.15044 0.36314 0 16 17
0.427267 0.955994 0.110194 110 104 91
0.434671 0.949446 0.109439 141 137 134
0.437976 0.949446 0.109439 74 72 86
0.440455 0.949446 0.109439 145 143 147
0.442934 0.949446 0.109439 156 155 161
0.446897 0.942987 0.108695 138 134 138
0.452643 0.942987 0.108695 93 88 106
0.478956 0.93033 0.107236 139 138 137
0.483815 0.93033 0.107236 142 140 139
-0.917076 1.55752 0.17818 111 73 30
-0.914364 1.55752 0.17818 142 89 45
-1.21602 2.43191 0.278211 128 126 122
-1.21391 2.43191 0.278211 115 113 111
-1.21179 2.43191 0.278211 102 102 102
-1.2302 2.47534 0.283179 90 90 90
-1.22804 2.47534 0.283179 87 83 86
-1.21699 3.01346 0.34474 142 116 101
-1.17765 3.01346 0.34474 170 131 99
-1.16978 3.01346 0.34474 183 135 109
-1.16494 3.08043 0.352401 179 144 114
-1.1569 3.08043 0.352401 180 154 138
-1.15154 3.08043 0.352401 159 119 103
-1.13545 3.08043 0.352401 158 129 114
-1.12473 3.08043 0.352401 171 142 121
-1.09956 3.15044 0.36041 170 128 96
-1.06666 3.15044 0.36041 158 123 90
-1.05295 3.15044 0.36041 171 138 112
-1.04746 3.15044 0.36041 141 112 92
-0.997467 3.2237 0.368791 185 144 122
-0.977826 3.2237 0.368791 186 149 122
-0.979563 3.30046 0.377572 200 164 146
-0.91062 3.30046 0.377572 205 172 144
-0.69977 3.46548 0.396451 96 64 47
-0.614078 3.55434 0.406616 19 32 46
-0.573861 3.55434 0.406616 26 19 16
-0.5207 3.64787 0.417317 2 4 5
-0.51435 3.64787 0.417317 24 35 42
-0.508 3.64787 0.417317 3 7 13
-0.4699 3.64787 0.417317 41 40 41
-0.46355 3.64787 0.417317 17 13 12
-0.1524 3.64787 0.417317 11 6 0
-0.149225 3.64787 0.417317 9 3 0
-2.25605e-16 3.64787 0.417317 135 140 83
0.00635 3.64787 0.417317 74 97 41
0.009525 3.64787 0.417317 69 110 50
0.015875 3.64787 0.417317 127 125 75
0.168601 3.55434 0.406616 114 119 69
0.2032 3.64787 0.417317 141 141 103
0.206375 3.64787 0.417317 125 137 91
0.360403 3.55434 0.406616 118 131 83
0.363497 3.55434 0.406616 132 131 82
0.36659 3.55434 0.406616 139 129 83
0.36195 3.46548 0.396451 149 127 69
0.871696 3.46548 0.396451 85 113 64
0.919956 3.46548 0.396451 90 118 66
1.03156 3.46548 0.396451 85 117 68
1.03457 3.46548 0.396451 94 120 70
1.17711 3.55434 0.406616 99 104 73
1.21473 3.15044 0.36041 0 33 32
1.21747 3.15044 0.36041 2 42 43
0.423939 0.955994 0.109366 21 16 19
0.427267 0.955994 0.109366 103 98 85
0.434671 0.949446 0.108617 133 126 125
0.437976 0.949446 0.108617 73 70 87
0.442934 0.949446 0.108617 144 144 150
0.452643 0.942987 0.107878 94 88 104
0.542925 1.10015 0.125857 115 113 119
0.473288 0.93033 0.10643 129 116 108
0.478956 0.93033 0.10643 140 139 139
0.483815 0.93033 0.10643 141 141 141
-0.917076 1.55752 0.17683 118 88 39
-0.914364 1.55752 0.17683 136 82 45
-0.913009 1.55752 0.17683 155 106 56
-1.2054 2.52035 0.286144 44 41 41
-1.20321 2.52035 0.286144 27 26 25
-1.21699 3.01346 0.342128 144 116 106
-1.17765 3.01346 0.342128 168 129 100
-1.16978 3.01346 0.342128 187 143 116
-1.16494 3.08043 0.349731 181 145 117
-1.1569 3.08043 0.349731 182 154 139
-1.15422 3.08043 0.349731 162 132 114
-1.13545 3.08043 0.349731 157 130 113
-1.13277 3.08043 0.349731 130 90 70
-1.13009 3.08043 0.349731 152 110 87
-1.12473 3.08043 0.349731 172 143 122
-0.696183 1.87323 0.212674 190 160 143
-1.06666 3.15044 0.357679 167 126 96
-1.05295 3.15044 0.357679 170 137 112
-1.04746 3.15044 0.357679 145 113 96
-0.977826 3.2237 0.365998 179 147 121
-0.963797 3.2237 0.365998 189 147 114
-0.913493 3.30046 0.374712 178 142 115
-0.91062 3.30046 0.374712 199 170 142
-0.69977 3.46548 0.393447 86 60 49
-0.614078 3.55434 0.403536 23 32 46
-0.593725 3.64787 0.414155 41 30 26
-0.587375 3.64787 0.414155 27 20 16
-0.530551 3.55434 0.403536 24 22 18
-0.51435 3.64787 0.414155 3 10 16
-0.511175 3.64787 0.414155 9 13 18
0.212725 3.64787 0.414155 118 138 85
0.22225 3.64787 0.414155 110 136 87
0.225425 3.64787 0.414155 100 131 80
0.341842 3.55434 0.403536 109 108 85
0.344935 3.55434 0.403536 116 112 91
0.348029 3.55434 0.403536 109 110 88
0.351122 3.55434 0.403536 93 104 82
0.354216 3.55434 0.403536 89 96 72
0.35731 3.55434 0.403536 99 99 76
0.360403 3.55434 0.403536 116 108 86
0.36659 3.55434 0.403536 138 123 112
0.372778 3.55434 0.403536 153 131 115
0.375871 3.55434 0.403536 161 132 113
0.370999 3.46548 0.393447 165 126 104
0.374015 3.46548 0.393447 164 125 103
0.377031 3.46548 0.393447 167 122 106
0.380048 3.46548 0.393447 152 119 112
0.666448 3.30046 0.374712 78 73 76
0.821348 3.55434 0.403536 123 106 108
0.824442 3.55434 0.403536 122 110 114
1.17402 3.55434 0.403536 58 82 49
1.17711 3.55434 0.403536 57 83 50
0.427267 0.955994 0.108537 98 91 81
0.433844 0.949446 0.107794 108 101 105
0.437976 0.949446 0.107794 75 71 84
0.441281 0.949446 0.107794 112 110 119
0.535384 1.08296 0.122952 104 99 103
0.470859 0.93033 0.105623 67 65 75
0.478956 0.93033 0.105623 144 139 138
0.479766 0.93033 0.105623 154 154 159
0.483815 0.93033 0.105623 147 145 145
-0.914364 1.55752 0.17548 129 77 38
-0.913009 1.55752 0.17548 154 102 54
-1.2076 2.52035 0.283959 3 2 2
-1.2054 2.52035 0.283959 2 1 1
-1.20321 2.52035 0.283959 5 4 1
-1.28442 2.8879 0.32537 153 131 121
-1.27709 2.94934 0.332293 154 122 103
-1.22062 2.94934 0.332293 143 126 120
-1.21699 3.01346 0.339516 141 118 110
-1.19863 3.01346 0.339516 178 132 102
-1.1569 3.08043 0.347061 182 155 143
-1.15422 3.08043 0.347061 161 131 119
-1.14081 3.08043 0.347061 154 116 91
-1.13277 3.08043 0.347061 132 94 68
-1.12473 3.08043 0.347061 171 144 121
-0.696183 1.87323 0.211051 183 158 140
-1.05295 3.15044 0.354949 174 140 115
-1.04746 3.15044 0.354949 147 116 97
-0.997467 3.2237 0.363204 189 147 120
-0.977826 3.2237 0.363204 181 147 121
-0.970945 3.30046 0.371851 213 181 162
-0.853934 3.08043 0.347061 200 173 146
-0.587375 3.64787 0.410994 29 23 20
-0.52705 3.64787 0.410994 13 11 12
0.168601 3.55434 0.400455 135 144 94
0.2032 3.64787 0.410994 107 143 91
0.211911 3.55434 0.400455 107 136 83
0.252128 3.55434 0.400455 103 136 80
0.255221 3.55434 0.400455 104 137 77
0.367983 3.46548 0.390444 144 130 129
0.370999 3.46548 0.390444 146 133 132
0.374015 3.46548 0.390444 147 135 133
0.377031 3.46548 0.390444 148 137 135
0.380048 3.46548 0.390444 149 137 139
0.41021 3.46548 0.390444 140 136 138
0.561487 3.55434 0.400455 71 81 86
0.55499 3.46548 0.390444 68 82 88
0.558006 3.46548 0.390444 65 82 85
0.666448 3.30046 0.371851 14 15 17
0.66932 3.30046 0.371851 28 29 32
0.672193 3.30046 0.371851 45 44 47
0.660769 3.2237 0.363204 76 69 71
0.874713 3.46548 0.390444 89 120 77
1.17402 3.55434 0.400455 19 60 32
1.17711 3.55434 0.400455 24 61 30
0.427267 0.955994 0.107709 96 88 81
0.428932 0.955994 0.107709 89 79 83
0.433844 0.949446 0.106971 106 101 105
0.434671 0.949446 0.106971 131 127 128
0.437976 0.949446 0.106971 74 71 83
0.470859 0.93033 0.104817 70 71 79
0.479766 0.93033 0.104817 157 158 162
-1.21198 2.52035 0.281775 11 9 3
-1.27709 2.94934 0.329737 155 126 108
-1.21699 3.01346 0.336905 134 118 111
-1.1569 3.08043 0.344392 181 153 142
-1.15154 3.08043 0.344392 153 119 101
-1.13277 3.08043 0.344392 135 96 69
-1.12473 3.08043 0.344392 168 139 120
-0.696183 1.87323 0.209427 186 160 139
-1.06666 3.15044 0.352219 165 125 102
-1.05295 3.15044 0.352219 180 143 118
-0.97669 3.30046 0.368991 164 136 119
-0.973818 3.30046 0.368991 194 161 143
-0.614078 3.55434 0.397375 17 35 43
-0.5969 3.64787 0.407832 77 72 71
-0.59055 3.64787 0.407832 51 47 46
-0.5334 3.64787 0.407832 15 15 7
-0.530225 3.64787 0.407832 5 4 3
0.0293891 3.55434 0.397375 90 120 65
0.04826 3.46548 0.387441 100 123 73
0.0634186 3.55434 0.397375 83 122 72
0.105569 3.46548 0.387441 156 156 113
0.284389 3.30046 0.368991 40 41 43
0.298682 3.38095 0.377991 86 85 88
0.369684 3.55434 0.397375 113 95 93
0.372778 3.55434 0.397375 116 97 95
0.375871 3.55434 0.397375 122 100 99
0.378965 3.55434 0.397375 126 106 103
0.660632 3.38095 0.377991 36 48 54
0.663575 3.38095 0.377991 35 40 45
0.666518 3.38095 0.377991 35 33 38
0.66946 3.38095 0.377991 26 22 23
0.66932 3.30046 0.368991 0 0 1
0.672193 3.30046 0.368991 0 0 1
0.675065 3.30046 0.368991 1 3 4
0.677938 3.30046 0.368991 15 17 18
0.680811 3.30046 0.368991 31 33 33
0.683683 3.30046 0.368991 50 48 49
0.689429 3.30046 0.368991 80 71 72
0.874713 3.46548 0.387441 85 116 77
1.01375 3.38095 0.377991 67 98 51
1.06378 3.38095 0.377991 54 79 48
1.14618 3.46548 0.387441 3 43 16
1.14919 3.46548 0.387441 7 46 16
0.427267 0.955994 0.10688 91 83 78
0.428099 0.955994 0.10688 102 100 99
0.431428 0.955994 0.10688 89 82 87
0.433844 0.949446 0.106148 109 105 107
0.434671 0.949446 0.106148 135 133 132
0.437976 0.949446 0.106148 73 69 82
0.442108 0.949446 0.106148 129 128 129
0.473288 0.93033 0.104011 117 105 99
0.477337 0.93033 0.104011 112 108 110
0.478956 0.93033 0.104011 147 144 144
0.481385 0.93033 0.104011 131 131 142
0.483815 0.93033 0.104011 147 147 147
-0.895695 1.50673 0.167147 181 147 95
-1.27966 2.94934 0.327181 173 147 133
-1.27196 2.94934 0.327181 176 143 117
-1.22575 2.94934 0.327181 129 100 82
-1.21699 3.01346 0.334293 134 116 106
-1.19339 3.01346 0.334293 167 141 123
-1.1569 3.08043 0.341722 183 156 147
-1.15154 3.08043 0.341722 150 124 101
-1.13545 3.08043 0.341722 145 124 108
-1.13277 3.08043 0.341722 137 100 75
-1.12473 3.08043 0.341722 170 136 119
-1.11936 3.08043 0.341722 154 111 83
-1.11668 3.08043 0.341722 176 137 109
-0.696183 1.87323 0.207804 187 158 139
-1.10328 3.08043 0.341722 164 132 113
-1.05295 3.15044 0.349488 180 144 118
-0.966603 3.2237 0.357616 172 132 94
-0.973818 3.30046 0.366131 193 160 139
-0.916646 3.38095 0.375061 173 139 124
-0.614078 3.55434 0.394294 15 32 42
-0.5969 3.64787 0.404671 80 75 73
-0.59055 3.64787 0.404671 58 54 52
-0.48895 3.64787 0.404671 3 4 3
0.0324827 3.55434 0.394294 105 138 86
0.0634186 3.55434 0.394294 87 127 79
0.0784225 3.46548 0.384437 144 156 109
0.084455 3.46548 0.384437 97 130 74
0.09652 3.46548 0.384437 105 132 68
0.102553 3.46548 0.384437 146 152 99
0.187008 3.46548 0.384437 95 134 79
0.289854 3.38095 0.375061 2 3 1
0.292797 3.38095 0.375061 1 1 2
0.29574 3.38095 0.375061 2 2 3
0.298682 3.38095 0.375061 5 7 9
0.301625 3.38095 0.375061 20 23 25
0.304568 3.38095 0.375061 44 45 47
0.440372 3.46548 0.384437 106 105 118
0.443389 3.46548 0.384437 97 105 120
0.651804 3.38095 0.375061 107 107 120
0.654747 3.38095 0.375061 96 101 114
0.65769 3.38095 0.375061 89 96 109
0.666518 3.38095 0.375061 46 50 57
0.66946 3.38095 0.375061 32 30 35
0.672403 3.38095 0.375061 16 11 14
0.663575 3.2237 0.357616 0 0 0
0.666381 3.2237 0.357616 0 1 1
0.669187 3.2237 0.357616 4 5 7
0.689429 3.30046 0.366131 19 19 21
0.692301 3.30046 0.366131 36 37 38
0.695174 3.30046 0.366131 58 57 59
0.698046 3.30046 0.366131 81 76 78
0.761244 3.30046 0.366131 89 85 77
0.764117 3.30046 0.366131 92 89 83
0.878789 3.74646 0.415608 101 91 90
0.866775 3.64787 0.404671 110 97 96
0.784225 3.30046 0.366131 98 93 92
0.787098 3.30046 0.366131 94 92 93
0.966671 3.38095 0.375061 38 65 31
0.969614 3.38095 0.375061 42 66 34
0.972557 3.38095 0.375061 66 79 46
0.98727 3.38095 0.375061 36 69 37
1.00787 3.38095 0.375061 54 81 41
1.06378 3.38095 0.375061 15 55 30
1.06672 3.38095 0.375061 14 51 27
1.06967 3.38095 0.375061 4 41 16
