ply
format ascii 1.0
element vertex 1332
property float x
property float y
property float z
property uchar red
property uchar green
property uchar blue
end_header
0.757657 2.84711 1.14492 188 139 101
0.766559 2.99314 1.20105 29 4 3
0.757439 2.99313 1.19975 143 101 62
0.765256 2.99314 1.19975 64 29 24
0.769164 2.99314 1.19975 19 5 0
-1.08229 2.84713 1.13999 76 47 0
0.758738 2.99312 1.19845 177 131 110
0.762649 2.99313 1.19845 153 115 108
0.766559 2.99314 1.19846 36 9 3
0.758738 2.99312 1.19456 185 129 105
0.762649 2.99313 1.19456 150 118 114
0.767855 2.99312 1.19456 8 1 0
0.758738 2.99312 1.19326 189 135 112
0.762649 2.99313 1.19327 150 117 112
0.767855 2.99312 1.19326 8 1 1
-1.22919 2.08451 0.830123 107 174 171
0.757439 2.99313 1.19197 155 105 64
0.76134 2.99311 1.19196 176 136 128
0.765256 2.99314 1.19197 80 61 59
-1.22919 2.08451 0.827413 136 192 217
-1.22646 2.08449 0.827408 179 215 243
0.763946 2.99311 1.18807 114 95 89
-1.22828 2.08451 0.825606 188 225 244
-1.22283 2.0845 0.822893 170 207 150
-1.22011 2.0845 0.822895 121 164 88
-1.19648 2.04793 0.808459 74 144 61
-0.79732 2.84713 1.12396 22 23 26
0.750705 3.24254 1.28005 40 2 0
0.754941 3.24255 1.28006 84 26 0
-1.22011 2.0845 0.821991 89 150 69
-1.2174 2.08451 0.821994 52 136 48
0.747887 3.24256 1.27865 20 1 0
0.752117 3.24255 1.27865 72 20 0
0.756352 3.24255 1.27865 107 37 0
-1.24275 2.1224 0.836015 83 143 62
-1.21829 2.0845 0.821086 53 136 51
0.749293 3.24254 1.27724 40 3 0
0.753529 3.24255 1.27725 102 37 0
0.759327 3.07191 1.21003 186 142 123
0.747887 3.24256 1.27584 40 7 0
0.752117 3.24255 1.27584 92 30 0
0.747887 3.24256 1.27444 48 9 0
0.752117 3.24255 1.27443 96 37 0
0.747887 3.24256 1.27303 61 20 0
0.752117 3.24255 1.27303 98 42 0
0.756352 3.24255 1.27303 130 76 5
0.759327 3.07191 1.20604 161 114 78
0.746474 3.24256 1.27163 33 12 0
0.746474 3.24256 1.26741 62 25 0
0.750705 3.24254 1.26741 108 52 0
0.759327 3.07191 1.19938 171 121 95
-1.16218 2.2025 0.856115 105 68 19
0.770467 2.99314 1.12842 71 32 0
0.771763 2.99312 1.12711 69 27 0
0.769164 2.99314 1.12193 110 53 22
0.770467 2.99314 1.11934 81 35 0
0.0680019 3.76554 1.40656 154 123 98
0.769164 2.99314 1.11804 92 45 5
0.773065 2.99311 1.11803 79 44 0
-0.949958 3.89103 1.45006 128 128 134
0.769164 2.99314 1.11545 114 60 22
0.773065 2.99311 1.11544 85 43 0
0.767855 2.99312 1.11414 145 87 52
0.771763 2.99312 1.11414 77 33 0
0.775673 2.99313 1.11415 146 101 19
-1.15441 2.38228 0.885736 36 32 25
0.769164 2.99314 1.11285 112 54 29
0.773065 2.99311 1.11284 81 37 0
0.770467 2.99314 1.11156 75 24 2
0.767855 2.99312 1.10895 143 92 45
0.771763 2.99312 1.10895 78 27 0
0.773065 2.99311 1.10766 72 27 0
0.771763 2.99312 1.09469 77 25 0
-0.968597 3.89109 1.40962 169 172 177
0.767855 2.99312 1.08431 160 100 33
0.771763 2.99312 1.08431 82 37 0
0.775673 2.99313 1.08431 111 62 0
0.779583 2.99313 1.08432 175 123 26
-1.21074 2.77933 1.00566 98 112 116
-0.963518 3.89109 1.40793 150 139 147
0.753534 3.53735 1.27994 47 14 0
0.770467 2.99314 1.08302 110 68 12
0.774366 2.99311 1.08301 90 41 0
0.779583 2.99313 1.08302 179 123 32
-0.968597 3.89109 1.40624 168 169 175
0.769164 2.99314 1.08172 138 95 25
0.773065 2.99311 1.08172 72 27 0
0.776975 2.99312 1.08172 138 86 0
-1.20953 2.77933 1.00325 92 100 99
-0.977059 3.89107 1.40455 139 140 141
-0.966893 3.89104 1.40454 177 172 181
0.769164 2.99314 1.08043 137 92 20
0.773065 2.99311 1.08042 75 34 1
0.776975 2.99312 1.08042 140 88 3
-1.20953 2.77933 1.00205 99 107 109
-0.966893 3.89104 1.40286 170 167 173
-0.694275 3.89109 1.40287 83 49 25
0.751991 3.53734 1.27533 50 8 0
0.755462 3.33519 1.20245 157 108 81
0.769164 2.99314 1.07913 142 93 27
0.773065 2.99311 1.07912 67 29 0
0.776975 2.99312 1.07912 136 84 1
-1.20953 2.77933 1.00084 94 103 108
-0.966893 3.89104 1.40117 149 149 151
-0.692581 3.89108 1.40118 82 42 18
0.751991 3.53734 1.2738 59 14 0
0.755462 3.33519 1.201 156 106 75
0.767855 2.99312 1.07782 159 101 30
0.773065 2.99311 1.07782 74 34 0
0.776975 2.99312 1.07783 135 84 1
-1.21074 2.77933 0.998432 95 111 119
-0.823498 3.07189 1.09288 190 196 217
0.774366 2.99311 1.06485 72 29 0
-0.822162 3.07189 1.09155 186 195 216
0.775673 2.99313 1.06356 87 42 0
-1.18429 2.43193 0.862042 120 75 39
-0.822162 3.07189 1.08889 151 175 196
-0.818153 3.0719 1.08889 172 177 194
0.0389424 3.89108 1.37926 200 176 151
0.770467 2.99314 1.06097 133 74 7
0.774366 2.99311 1.06096 81 30 0
0.778282 2.99314 1.06097 137 94 5
-0.823498 3.07189 1.08756 131 152 177
-0.819484 3.07188 1.08755 188 200 217
-0.815473 3.07188 1.08755 142 134 156
0.770467 2.99314 1.05968 136 74 7
0.774366 2.99311 1.05966 83 32 0
0.778282 2.99314 1.05968 131 87 3
-0.822162 3.07189 1.08623 134 149 173
0.770467 2.99314 1.05838 144 78 22
0.774366 2.99311 1.05837 78 31 0
-0.819484 3.07188 1.08489 172 180 199
0.770467 2.99314 1.05708 146 84 35
0.774366 2.99311 1.05707 70 29 0
0.774366 2.99311 1.05577 72 33 0
0.774366 2.99311 1.05318 83 30 0
-0.849494 2.59405 0.900397 60 56 61
0.774366 2.99311 1.03891 81 32 0
-0.849494 2.59405 0.899273 58 54 57
-0.849494 2.59405 0.897025 57 53 53
0.775673 2.99313 1.03503 72 26 0
-0.850621 2.59404 0.895898 45 36 37
-0.849494 2.59405 0.894777 55 51 52
-0.849494 2.59405 0.891405 58 56 56
-0.846103 2.59403 0.877911 8 2 3
0.775673 2.99313 1.01298 76 30 0
0.779583 2.99313 1.01298 114 64 0
0.734564 2.33464 0.790122 155 158 168
0.737611 2.33463 0.79012 77 92 110
0.776975 2.99312 1.01038 81 37 0
0.776975 2.99312 1.00909 73 35 0
0.738629 2.33464 0.787088 86 94 114
-0.846103 2.59403 0.873414 2 1 4
0.774366 2.99311 1.00778 109 52 20
0.778282 2.99314 1.00779 84 46 0
0.734564 2.33464 0.786075 163 160 170
0.738629 2.33464 0.786076 87 95 111
0.776975 2.99312 1.0039 74 30 0
0.780884 2.99313 1.0039 141 88 3
0.734564 2.33464 0.78304 170 169 175
0.738629 2.33464 0.783041 97 99 114
0.778282 2.99314 1.00261 88 37 0
0.737611 2.33463 0.778992 92 100 112
-0.743375 2.59404 0.856555 105 104 100
-0.739988 2.59403 0.856553 88 83 88
0.738629 2.33464 0.770901 93 107 131
0.778282 2.99314 0.983151 79 31 0
0.776975 2.99312 0.981848 83 37 0
0.780884 2.99313 0.98185 112 69 0
0.778282 2.99314 0.97926 86 32 0
0.779583 2.99313 0.976664 70 30 0
0.735583 2.33464 0.748645 186 184 198
0.735583 2.33464 0.74561 184 184 197
0.735583 2.33464 0.744598 188 186 200
0.780884 2.99313 0.90792 93 33 0
0.711196 3.89107 1.17524 27 6 0
0.709499 3.89105 1.17186 33 6 0
0.714579 3.89105 1.17186 65 34 22
0.719657 3.89104 1.17186 21 2 0
0.72474 3.89105 1.17186 44 7 0
-0.849494 2.59405 0.778996 53 51 57
0.711196 3.89107 1.16849 24 11 1
0.716269 3.89103 1.16848 66 36 19
0.721354 3.89106 1.16849 22 3 0
0.728132 3.89108 1.1685 72 21 0
0.716269 3.89103 1.16511 67 32 15
0.721354 3.89106 1.16512 21 4 0
0.726436 3.89107 1.16512 56 11 0
0.709499 3.89105 1.16343 46 7 0
0.714579 3.89105 1.16343 72 41 29
0.721354 3.89106 1.16343 24 5 0
0.726436 3.89107 1.16343 56 12 0
0.714579 3.89105 1.16174 84 49 37
0.721354 3.89106 1.16174 20 2 0
0.728132 3.89108 1.16175 55 10 0
-0.850621 2.59404 0.771125 51 50 53
0.707807 3.89106 1.15669 77 29 0
0.723043 3.89103 1.15668 20 3 0
0.728132 3.89108 1.15669 52 16 0
0.783491 2.99313 0.889762 94 45 0
0.737611 2.33463 0.694011 171 170 184
-0.850621 2.59404 0.770001 51 47 51
-0.751844 3.89106 1.155 131 90 9
0.211661 3.89104 1.15499 41 17 0
0.728132 3.89108 1.15501 49 16 0
0.783491 2.99313 0.888465 85 40 0
-0.850621 2.59404 0.766629 54 51 59
0.213356 3.89107 1.14995 52 33 0
0.353905 3.8911 1.14995 108 62 1
-0.850621 2.59404 0.765505 44 42 51
-0.847233 2.59404 0.765504 2 7 5
-0.800959 3.8911 1.14827 165 122 71
0.213356 3.89107 1.14826 43 24 0
0.218434 3.89104 1.14825 138 96 31
0.350515 3.89106 1.14826 139 78 6
0.355594 3.89104 1.14825 111 67 8
0.707807 3.89106 1.14826 66 27 0
0.783491 2.99313 0.883277 90 42 0
-0.850621 2.59404 0.76438 43 41 47
-0.847233 2.59404 0.764379 0 6 5
-0.722971 2.84711 0.838951 120 145 144
0.213356 3.89107 1.14657 52 30 1
0.218434 3.89104 1.14656 132 89 21
0.350515 3.89106 1.14657 142 80 16
0.355594 3.89104 1.14656 102 62 2
0.707807 3.89106 1.14657 67 31 0
0.714579 3.89105 1.14657 8 1 0
-0.850621 2.59404 0.762133 53 53 52
-0.847233 2.59404 0.762132 0 8 4
-0.721738 2.84713 0.836491 124 140 138
0.209968 3.89104 1.14319 40 6 0
0.215049 3.89106 1.1432 82 48 0
0.707807 3.89106 1.1432 73 32 0
0.782184 2.99312 0.879382 95 37 0
-0.850621 2.59404 0.761008 47 48 45
-0.847233 2.59404 0.761007 0 8 4
0.209968 3.89104 1.14151 45 9 0
0.215049 3.89106 1.14151 83 48 0
0.220129 3.89106 1.14151 152 114 41
0.355594 3.89104 1.14151 111 62 4
0.704417 3.89103 1.1415 84 43 0
0.711196 3.89107 1.14151 37 10 0
0.783491 2.99313 0.878089 92 42 0
-0.850621 2.59404 0.759884 56 57 55
-0.847233 2.59404 0.759883 0 7 3
-0.722971 2.84711 0.834016 89 114 129
-0.71926 2.84713 0.834024 132 139 135
0.215049 3.89106 1.13983 80 45 0
0.706116 3.89106 1.13983 85 38 0
0.780884 2.99313 0.876791 123 56 24
0.209968 3.89104 1.13476 39 14 3
0.215049 3.89106 1.13477 85 53 6
0.707807 3.89106 1.13477 85 38 3
0.783491 2.99313 0.872901 77 40 0
-0.850621 2.59404 0.755388 53 54 56
-0.847233 2.59404 0.755387 1 4 4
0.209968 3.89104 1.13308 38 15 2
0.215049 3.89106 1.13308 84 47 3
0.706116 3.89106 1.13308 98 48 7
0.779583 2.99313 0.871605 146 86 25
0.783491 2.99313 0.871604 79 38 0
-0.850621 2.59404 0.752016 46 42 45
-0.847233 2.59404 0.752015 9 9 13
0.209968 3.89104 1.12802 45 18 3
0.215049 3.89106 1.12802 83 44 0
0.704417 3.89103 1.12802 115 70 2
0.779583 2.99313 0.867714 150 82 21
0.783491 2.99313 0.867713 93 39 0
-0.849494 2.59405 0.750893 49 48 51
0.209968 3.89104 1.12633 45 21 3
0.215049 3.89106 1.12634 77 42 0
0.780884 2.99313 0.866414 125 59 9
0.784796 2.99315 0.866419 93 42 0
-0.849494 2.59405 0.74977 54 52 57
-0.721738 2.84713 0.82292 183 211 239
0.209968 3.89104 1.12465 39 16 0
0.215049 3.89106 1.12465 79 47 0
0.783491 2.99313 0.865119 94 38 0
-0.850621 2.59404 0.747519 55 45 52
-0.847233 2.59404 0.747518 5 4 8
-0.720495 2.84711 0.820447 174 206 235
0.211661 3.89104 1.12127 50 29 0
0.216744 3.89109 1.12129 103 70 0
0.784796 2.99315 0.862529 92 48 0
-0.851749 2.59404 0.746395 46 39 43
-0.847233 2.59404 0.746394 5 6 13
-0.722971 2.84711 0.819211 117 165 193
-0.71926 2.84713 0.819218 165 197 227
0.211661 3.89104 1.11959 45 29 0
0.216744 3.89109 1.1196 103 71 3
0.784796 2.99315 0.861231 95 52 0
-0.850621 2.59404 0.745271 57 52 59
-0.847233 2.59404 0.74527 4 6 11
-0.736601 2.99311 0.859925 42 45 45
-0.732695 2.99312 0.859927 97 105 111
0.783491 2.99313 0.859931 90 41 0
-0.850621 2.59404 0.744147 57 53 56
-0.736601 2.99311 0.843064 43 46 48
-0.847233 2.59404 0.729533 6 4 5
-0.736601 2.99311 0.841767 41 42 46
-0.850621 2.59404 0.727286 47 49 53
-0.847233 2.59404 0.727285 4 4 6
-0.725446 2.84709 0.798234 94 152 189
-0.736601 2.99311 0.839173 44 42 45
-0.732695 2.99312 0.839175 96 102 112
-0.756928 3.89108 1.09093 168 118 47
-0.751844 3.89106 1.09093 147 96 28
0.709499 3.89105 1.09093 89 45 0
-0.850621 2.59404 0.726162 42 43 48
-0.847233 2.59404 0.726161 6 6 9
-0.725446 2.84709 0.797 105 164 207
-0.740512 2.99313 0.837881 20 19 24
-0.736601 2.99311 0.837876 48 44 47
-0.732695 2.99312 0.837878 98 101 111
-0.755237 3.89109 1.08925 173 123 55
-0.750145 3.89103 1.08923 112 67 0
0.264156 3.89106 1.08924 154 103 6
0.709499 3.89105 1.08924 95 47 0
0.714579 3.89105 1.08924 63 26 0
-0.850621 2.59404 0.725038 51 49 54
-0.847233 2.59404 0.725037 5 5 8
-0.724213 2.84712 0.795773 116 172 208
-0.720495 2.84711 0.795772 84 124 138
-0.740512 2.99313 0.836583 20 20 21
-0.736601 2.99311 0.836579 46 44 49
-0.732695 2.99312 0.836581 92 98 108
-0.756928 3.89108 1.08756 165 113 48
-0.751844 3.89106 1.08756 141 96 15
0.264156 3.89106 1.08756 151 104 5
0.709499 3.89105 1.08755 99 51 0
0.714579 3.89105 1.08755 65 24 0
-0.850621 2.59404 0.723914 51 49 54
-0.847233 2.59404 0.723913 4 4 8
-0.725446 2.84709 0.794533 107 164 202
-0.721738 2.84713 0.794543 72 137 153
-0.740512 2.99313 0.835286 19 20 23
-0.736601 2.99311 0.835282 45 44 47
-0.732695 2.99312 0.835284 102 109 119
-0.750145 3.89103 1.08586 110 73 0
0.711196 3.89107 1.08587 69 21 0
0.716269 3.89103 1.08586 82 43 0
-0.850621 2.59404 0.722789 53 54 59
-0.847233 2.59404 0.722788 6 6 8
-0.736601 2.99311 0.833985 42 42 43
0.709499 3.89105 1.08418 88 39 0
0.714579 3.89105 1.08418 67 24 0
-0.850621 2.59404 0.721666 48 51 56
-0.847233 2.59404 0.721665 10 7 5
-0.724213 2.84712 0.792072 104 163 192
-0.740512 2.99313 0.832692 18 20 23
-0.736601 2.99311 0.832688 41 41 41
-0.732695 2.99312 0.83269 105 107 113
0.211661 3.89104 1.08249 64 32 0
0.711196 3.89107 1.0825 73 22 0
0.716269 3.89103 1.08249 86 47 0
-0.849494 2.59405 0.719419 43 43 46
-0.736601 2.99311 0.830094 45 46 49
0.712888 3.89106 1.07913 61 16 0
0.717966 3.89105 1.07912 98 56 1
-0.736601 2.99311 0.8275 42 38 39
0.714579 3.89105 1.07406 68 23 0
-0.736601 2.99311 0.811936 43 42 44
-0.737903 2.99311 0.810639 35 32 39
-0.733998 2.99312 0.810641 111 104 107
-0.756928 3.89108 1.05384 170 119 60
-0.736601 2.99311 0.808045 41 34 38
-0.732695 2.99312 0.805452 108 105 112
-0.737903 2.99311 0.80156 39 29 32
-0.733998 2.99312 0.801562 118 111 117
-0.733998 2.99312 0.800265 119 115 119
-0.733998 2.99312 0.796373 116 114 113
-0.736601 2.99311 0.780807 47 50 43
-0.847233 2.59404 0.675577 8 8 5
-0.84836 2.59403 0.671079 2 11 13
-0.84836 2.59403 0.669955 3 13 15
-0.847233 2.59404 0.667709 5 3 4
-0.733998 2.99312 0.753572 155 146 144
-0.736601 2.99311 0.749679 86 78 66
-0.732695 2.99312 0.749681 141 139 136
-0.736601 2.99311 0.745788 89 84 71
-0.736601 2.99311 0.744491 92 87 78
0.205009 4.16899 1.03697 85 51 0
-0.735299 2.99312 0.741898 128 122 110
0.206825 4.16902 1.03337 88 55 19
0.208638 4.169 1.03156 99 69 42
-0.735299 2.99312 0.739304 142 127 112
0.206825 4.16902 1.02975 77 53 19
0.212267 4.16901 1.02975 106 81 43
0.206825 4.16902 1.02253 86 58 12
0.716269 3.89103 0.954344 69 29 0
-0.713016 4.16898 1.02071 51 46 57
0.101595 4.16899 1.02071 4 4 2
0.208638 4.169 1.02072 112 80 43
0.716269 3.89103 0.952658 69 29 0
0.788701 2.99313 0.732823 90 38 6
-0.713016 4.16898 1.0171 56 55 62
0.105224 4.16901 1.01711 15 6 1
0.788701 2.99313 0.730229 89 38 5
-0.713016 4.16898 1.01348 50 49 53
0.103409 4.16898 1.01348 14 5 4
0.716269 3.89103 0.945914 70 30 0
0.79 2.99312 0.727631 93 37 3
-0.733998 2.99312 0.717255 190 184 184
-0.736601 2.99311 0.714659 131 120 117
-0.732695 2.99312 0.714661 164 165 168
-0.73921 2.99313 0.713366 55 48 48
-0.735299 2.99312 0.713363 162 153 153
-0.731398 2.99315 0.71337 95 105 108
0.197752 4.169 0.993616 106 101 85
0.205009 4.16899 0.993615 100 71 26
-0.737903 2.99311 0.712066 107 98 97
-0.733998 2.99312 0.712067 181 178 180
-0.730089 2.99312 0.712067 44 47 50
-0.718466 4.16902 0.991815 52 48 53
0.212267 4.16901 0.991811 122 84 58
-0.736601 2.99311 0.709472 136 126 121
-0.732695 2.99312 0.709473 151 151 148
-0.737903 2.99311 0.708175 104 98 85
-0.733998 2.99312 0.708176 178 172 167
-0.722094 4.16902 0.986395 85 76 75
-0.716647 4.16899 0.986389 42 41 50
0.201382 4.16902 0.986395 120 87 37
0.212267 4.16901 0.986392 128 98 56
-0.735299 2.99312 0.706878 172 163 160
-0.731398 2.99315 0.706885 99 99 99
-0.723904 4.16899 0.984582 97 96 91
-0.718466 4.16902 0.984589 54 50 53
-0.713016 4.16898 0.984579 21 31 48
0.206825 4.16902 0.984588 98 64 16
-0.722094 4.16902 0.979168 87 85 80
-0.716647 4.16899 0.979162 49 51 57
0.210454 4.16902 0.97917 117 77 50
-0.722094 4.16902 0.977362 91 89 85
-0.716647 4.16899 0.977356 42 47 54
-0.722094 4.16902 0.975555 91 89 87
-0.716647 4.16899 0.975549 43 48 55
-0.722094 4.16902 0.971942 89 87 83
-0.716647 4.16899 0.971936 45 46 50
-0.729342 4.16896 0.968316 144 144 142
-0.723904 4.16899 0.968323 111 109 104
-0.729342 4.16896 0.964703 142 142 141
-0.723904 4.16899 0.96471 118 119 115
-0.718466 4.16902 0.964717 69 67 61
-0.729342 4.16896 0.962896 138 138 138
-0.723904 4.16899 0.962904 111 113 110
-0.718466 4.16902 0.96291 74 73 69
-0.729342 4.16896 0.96109 142 142 142
-0.723904 4.16899 0.961097 118 122 117
-0.718466 4.16902 0.961103 69 69 67
-0.733998 2.99312 0.687424 183 181 177
-0.729342 4.16896 0.957476 148 146 148
-0.723904 4.16899 0.957484 114 116 112
0.690589 2.20249 0.505841 110 109 118
-0.737903 2.99311 0.686125 54 53 51
-0.733998 2.99312 0.686127 180 177 174
-0.727532 4.16899 0.955676 144 139 142
-0.722094 4.16902 0.955683 98 92 89
-0.716647 4.16899 0.955677 57 63 57
0.689634 2.2025 0.504889 99 100 107
-0.703474 2.53765 0.580618 84 114 142
-0.736601 2.99311 0.684828 102 96 91
-0.732695 2.99312 0.68483 184 184 184
-0.727532 4.16899 0.95387 140 135 138
-0.722094 4.16902 0.953876 107 99 97
-0.737903 2.99311 0.683531 50 44 36
-0.733998 2.99312 0.683533 178 170 168
-0.727532 4.16899 0.952063 134 134 136
-0.722094 4.16902 0.95207 103 100 96
-0.716647 4.16899 0.952064 54 57 52
-0.733998 2.99312 0.680939 176 168 166
-0.727532 4.16899 0.94845 141 139 145
-0.722094 4.16902 0.948457 103 105 100
-0.720276 4.169 0.946645 85 92 84
-0.714836 4.16901 0.946649 50 52 55
-0.733998 2.99312 0.675751 170 163 156
-0.733998 2.99312 0.670563 172 165 161
-0.732695 2.99312 0.669266 189 185 185
0.695759 2.28886 0.511793 149 155 169
-0.733998 2.99312 0.665375 176 165 159
-0.730089 2.99312 0.665374 70 70 72
0.777235 2.91829 0.64874 47 21 2
0.781046 2.9183 0.648741 125 76 8
0.689786 2.28888 0.50882 118 119 124
0.692773 2.28887 0.508819 144 149 162
0.684821 2.24485 0.499032 140 136 152
-0.733998 2.99312 0.664078 165 157 150
0.777235 2.91829 0.647476 41 15 0
0.782318 2.91831 0.647478 142 84 15
0.706121 2.33465 0.517984 146 152 167
0.694759 2.28885 0.507823 173 185 206
0.697752 2.28887 0.507826 132 132 147
0.777235 2.91829 0.646211 47 20 0
0.782318 2.91831 0.646214 133 81 1
0.695759 2.28886 0.506833 142 156 173
0.774694 2.91829 0.643681 11 3 0
0.778507 2.9183 0.643683 67 40 0
0.782318 2.91831 0.643684 138 86 0
0.693768 2.28887 0.504851 149 157 171
-0.731398 2.99315 0.658895 155 155 155
0.774694 2.91829 0.642417 19 4 0
0.692773 2.28887 0.50386 153 156 172
0.695759 2.28886 0.503858 126 128 142
0.778507 2.9183 0.639889 59 28 0
0.782318 2.91831 0.639891 142 84 5
0.707135 2.33465 0.511913 124 124 137
0.215049 3.89106 0.844754 85 64 33
0.220129 3.89106 0.844755 109 80 42
0.22521 3.89109 0.844761 150 110 45
-1.02786 2.59404 0.549681 40 12 24
-0.711205 3.89107 0.805974 139 143 153
-0.732695 2.99312 0.618682 184 173 167
-0.721363 3.89105 0.804286 114 113 112
-0.716278 3.89103 0.804281 174 191 209
-0.711205 3.89107 0.804288 138 143 150
-0.704425 3.89103 0.804281 180 191 205
0.220129 3.89106 0.804288 88 56 20
-1.02447 2.59404 0.535066 82 10 4
-0.732695 2.99312 0.617384 184 173 167
-0.721363 3.89105 0.802599 113 111 112
-0.711205 3.89107 0.802602 138 145 152
-0.704425 3.89103 0.802594 178 187 201
-0.716647 4.16899 0.859929 35 42 61
0.220129 3.89106 0.802601 81 53 13
0.762722 3.3352 0.687944 75 52 35
-0.716278 3.89103 0.800908 170 190 207
-0.704425 3.89103 0.800908 180 191 203
-0.718466 4.16902 0.858128 45 44 61
-0.713016 4.16898 0.85812 3 19 47
-1.02898 2.59403 0.531694 29 10 21
-1.02447 2.59404 0.531694 94 14 9
-1.02109 2.59405 0.531697 49 3 6
-0.84836 2.59403 0.531693 7 5 12
-0.733998 2.99312 0.613494 132 120 114
-0.730089 2.99312 0.613494 107 102 107
-0.746767 3.89107 0.797545 107 63 12
-0.721363 3.89105 0.797541 120 111 115
-0.716278 3.89103 0.797536 176 189 203
-0.711205 3.89107 0.797544 157 164 175
-0.704425 3.89103 0.797536 181 190 200
-0.722094 4.16902 0.854515 91 87 100
-0.716647 4.16899 0.85451 24 41 53
0.220129 3.89106 0.797543 68 52 14
0.22521 3.89109 0.797549 135 96 37
0.764174 3.3352 0.683609 43 23 15
-1.0256 2.59404 0.53057 94 15 16
-0.732695 2.99312 0.612197 162 159 158
-0.714588 3.89105 0.795853 173 187 206
-0.709507 3.89104 0.795852 159 166 174
-0.716647 4.16899 0.852703 28 40 51
0.220129 3.89106 0.795857 66 50 13
0.22521 3.89109 0.795863 140 101 42
0.764174 3.3352 0.682164 42 23 6
-1.02447 2.59404 0.528322 90 9 10
-0.732695 2.99312 0.609602 155 150 146
-0.712896 3.89106 0.792483 169 182 200
-0.707817 3.89106 0.792483 145 150 157
-0.714836 4.16901 0.849094 14 37 52
0.764174 3.3352 0.679273 52 18 1
-0.731398 2.99315 0.608311 156 151 154
-0.712896 3.89106 0.790797 167 180 199
-0.707817 3.89106 0.790798 144 148 155
-0.716647 4.16899 0.847283 26 36 44
-1.03012 2.59405 0.524952 26 11 18
-0.732695 2.99312 0.605711 154 148 146
-0.714588 3.89105 0.787423 171 184 204
-0.736601 2.99311 0.603116 37 30 21
-0.732695 2.99312 0.603117 148 140 136
-0.746767 3.89107 0.784056 100 49 6
-0.719665 3.89103 0.784047 158 154 165
-0.709507 3.89104 0.784049 162 166 176
-0.718466 4.16902 0.840062 23 41 55
-0.713016 4.16898 0.840055 0 11 39
-0.721363 3.89105 0.78068 103 103 104
-0.745066 3.89103 0.77899 92 43 6
-0.724749 3.89105 0.778993 65 52 51
-0.719665 3.89103 0.778989 157 158 166
-0.714588 3.89105 0.778992 173 185 205
-0.743379 3.89107 0.772253 82 33 2
-0.726445 3.89106 0.772251 65 56 44
-0.721363 3.89105 0.772249 97 96 88
-0.714588 3.89105 0.772248 173 185 203
-0.70274 3.89108 0.772254 180 183 195
-0.702368 2.53765 0.480549 116 126 132
-0.738304 3.8911 0.736848 31 4 0
-0.743379 3.89107 0.731786 74 35 0
0.779925 3.43329 0.645691 10 4 0
0.779925 3.43329 0.641228 6 1 0
0.784409 3.4333 0.64123 57 19 4
-0.701047 3.89108 0.711553 169 171 176
-0.706125 3.89107 0.709865 139 143 154
-0.701047 3.89108 0.709867 164 166 170
0.779925 3.43329 0.62635 6 4 2
-0.701047 3.89108 0.708181 164 165 168
0.773951 3.4333 0.624865 56 29 21
-0.711205 3.89107 0.706493 158 174 194
-0.706125 3.89107 0.706492 135 140 150
-0.701047 3.89108 0.706494 164 166 167
0.773951 3.4333 0.623377 52 26 15
0.779925 3.43329 0.623375 2 2 0
0.656771 2.08451 0.378479 99 89 94
-0.847233 2.59404 0.468746 4 2 3
-0.843847 2.59404 0.468746 56 48 49
-0.738014 3.24255 0.585933 188 91 111
-0.733777 3.24253 0.58593 157 72 82
-0.698505 3.24256 0.585934 215 86 108
-0.694275 3.24257 0.585937 211 82 88
-0.745066 3.89103 0.703115 91 52 0
-0.739991 3.89106 0.70312 51 17 0
-0.726445 3.89106 0.70312 72 68 51
-0.721363 3.89105 0.703118 94 87 79
-0.714588 3.89105 0.703117 167 182 204
-0.709507 3.89104 0.703116 156 170 182
0.0931286 3.89105 0.703118 158 167 180
0.767974 3.4333 0.620401 142 74 24
0.655857 2.08449 0.376669 80 68 65
0.658582 2.08449 0.376671 55 46 47
-0.847233 2.59404 0.467622 4 4 4
-0.843847 2.59404 0.467622 49 40 41
-0.698505 3.24256 0.58453 213 88 108
-0.694275 3.24257 0.584532 219 94 102
-0.721363 3.89105 0.701432 97 87 77
-0.716278 3.89103 0.701428 176 181 202
-0.711205 3.89107 0.701435 151 171 181
0.0931286 3.89105 0.701432 155 165 178
0.77245 3.43327 0.618909 53 18 0
0.656771 2.08451 0.375769 85 77 72
-0.697092 3.24255 0.583122 166 50 61
-0.719665 3.89103 0.699742 148 139 144
-0.714588 3.89105 0.699744 169 181 198
0.775446 3.4333 0.617427 18 2 0
-0.847233 2.59404 0.465373 2 2 2
-0.697092 3.24255 0.581717 161 49 53
-0.719665 3.89103 0.698056 148 145 147
-0.714588 3.89105 0.698058 176 185 206
0.773951 3.4333 0.615938 30 4 0
-0.847233 2.59404 0.464249 3 3 2
-0.745066 3.89103 0.69637 94 49 8
-0.721363 3.89105 0.696373 85 85 75
-0.714588 3.89105 0.696372 178 183 204
-0.711206 4.169 0.746117 0 1 6
-0.714588 3.89105 0.691314 176 183 203
-0.711206 4.169 0.740698 0 0 2
-0.714588 3.89105 0.689628 173 182 203
-0.713016 4.16898 0.708176 21 42 52
-0.714836 4.16901 0.706375 63 82 95
-0.980442 2.59404 0.438396 45 49 49
-0.977054 2.59404 0.438395 33 21 20
-0.716647 4.16899 0.704565 71 91 103
-0.709394 4.16902 0.704569 0 1 6
0.228595 3.89105 0.657593 140 106 47
0.656771 2.08451 0.352284 83 72 68
-0.714836 4.16901 0.702762 61 81 99
0.656771 2.08451 0.351381 84 73 70
0.656771 2.08451 0.350477 88 76 68
-0.981568 2.59403 0.433898 42 41 41
-0.978182 2.59403 0.433898 15 15 15
-0.9827 2.59404 0.428279 53 52 52
-0.9827 2.59404 0.423783 31 31 30
0.218434 3.89104 0.603635 99 81 80
0.657044 2.20249 0.341683 52 52 59
-0.663838 3.15492 0.477133 204 92 110
-0.753078 3.15491 0.474397 74 29 24
0.209968 3.89104 0.585087 166 175 183
-0.842717 2.59404 0.388936 52 54 58
-0.753078 3.15491 0.47303 71 25 21
-0.665212 3.15493 0.473033 181 80 87
-0.842717 2.59404 0.387812 55 53 59
-0.718879 2.71468 0.405848 102 28 37
-0.715337 2.71469 0.40585 143 38 47
-0.753078 3.15491 0.471663 79 28 26
-0.665212 3.15493 0.471666 182 81 86
0.209968 3.89104 0.581715 171 178 188
-0.847233 2.59404 0.386688 3 5 4
-0.842717 2.59404 0.386687 56 50 57
-0.718879 2.71468 0.404672 107 29 33
-0.747587 3.15492 0.470296 127 55 49
-0.667955 3.15492 0.470297 116 25 24
-0.708578 4.02525 0.600035 123 134 154
0.215049 3.89106 0.580032 156 163 169
0.22521 3.89109 0.580036 101 88 60
0.369144 3.89108 0.580035 101 50 19
0.657676 2.0845 0.310732 75 60 47
-0.847233 2.59404 0.385563 2 3 3
-0.720067 2.71471 0.403499 84 36 44
-0.716521 2.7147 0.403498 154 36 40
-0.751706 3.15492 0.468929 75 26 19
-0.747587 3.15492 0.468929 124 49 43
-0.665212 3.15493 0.468931 183 77 87
0.204888 3.89105 0.578344 134 155 166
0.209968 3.89104 0.578343 176 184 195
0.369144 3.89108 0.578349 96 47 23
-0.847233 2.59404 0.384439 2 4 3
-0.720067 2.71471 0.402323 77 30 41
-0.716521 2.7147 0.402322 150 39 43
-0.751706 3.15492 0.467562 77 25 18
-0.747587 3.15492 0.467562 126 49 49
-0.709144 3.15491 0.467562 138 47 53
-0.672072 3.15491 0.467561 79 6 8
-0.667955 3.15492 0.467562 116 22 29
0.211661 3.89104 0.576656 178 186 194
0.216744 3.89109 0.576663 155 159 165
-0.847233 2.59404 0.383315 2 4 3
-0.747587 3.15492 0.466195 113 41 42
-0.674823 3.15493 0.466197 105 16 39
-0.670698 3.1549 0.466193 79 4 8
-0.632261 3.15493 0.466197 184 72 94
-0.622647 3.15492 0.466196 200 72 88
0.211661 3.89104 0.57497 177 184 194
0.657676 2.0845 0.308022 75 56 51
-0.847233 2.59404 0.382191 10 10 7
-0.842717 2.59404 0.382191 57 57 55
-0.747587 3.15492 0.464828 119 53 51
-0.673444 3.1549 0.464826 93 7 25
-0.630886 3.15492 0.464829 160 46 62
-0.626768 3.15492 0.464829 169 51 59
0.211661 3.89104 0.573284 175 182 193
0.369144 3.89108 0.573291 109 59 35
0.657676 2.0845 0.307119 79 60 57
-0.989474 2.59404 0.379944 19 19 19
-0.748961 3.15492 0.462094 104 40 40
-0.716007 3.15491 0.462093 58 12 13
-0.71189 3.15492 0.462094 83 16 15
-0.673444 3.1549 0.462092 102 15 36
-0.669329 3.15492 0.462095 95 5 5
-0.635003 3.15492 0.462094 229 112 133
-0.630886 3.15492 0.462095 182 82 96
-0.626768 3.15492 0.462095 161 48 54
0.208277 3.89108 0.569918 184 189 200
-0.989474 2.59404 0.37882 17 17 16
-0.744841 3.15491 0.460726 135 64 68
-0.714634 3.15491 0.460725 52 5 7
-0.676197 3.15493 0.460729 213 106 133
-0.670698 3.1549 0.460724 88 2 11
0.208277 3.89108 0.568232 183 185 197
-0.667955 3.15492 0.457992 105 13 19
-0.669329 3.15492 0.456626 92 5 10
-0.674823 3.15493 0.45526 216 98 129
-0.669329 3.15492 0.455259 87 5 6
-0.709507 3.89104 0.561482 139 162 180
0.208277 3.89108 0.561488 144 144 157
-0.669329 3.15492 0.453892 81 4 1
0.208277 3.89108 0.559802 129 128 139
-0.667955 3.15492 0.426548 84 2 15
0.221821 3.89105 0.526074 57 32 5
0.228595 3.89105 0.526075 101 64 21
-0.712896 3.89106 0.514273 177 181 197
-0.663838 3.15492 0.412878 94 12 9
-0.662464 3.15492 0.41151 119 27 25
-0.714588 3.89105 0.507527 171 178 191
-0.709507 3.89104 0.507526 141 162 181
0.658582 2.08449 0.27189 50 50 53
0.661305 2.0845 0.271891 21 12 11
-0.658342 3.15491 0.408775 210 104 116
-0.717976 3.89105 0.504156 110 102 103
-0.712896 3.89106 0.504156 168 179 198
-0.712896 3.89106 0.50247 167 180 198
-0.658342 3.15491 0.40604 204 100 118
-0.717976 3.89105 0.500783 109 105 107
-0.712896 3.89106 0.500784 162 179 198
-0.670698 3.1549 0.373228 200 89 110
-0.666581 3.15491 0.37323 103 24 36
-0.656973 3.15492 0.373231 111 34 34
-0.65285 3.1549 0.373229 140 51 55
-0.651478 3.15491 0.369128 148 55 61
-0.65285 3.1549 0.36776 140 44 51
-0.651478 3.15491 0.365027 133 41 50
-0.714634 3.15491 0.363659 32 2 7
-0.655597 3.15491 0.363659 89 11 16
-0.651478 3.15491 0.36366 129 40 45
-0.647364 3.15493 0.363662 176 89 95
-0.714634 3.15491 0.362292 31 1 3
-0.710517 3.15491 0.362293 85 23 20
-0.655597 3.15491 0.362292 87 7 10
-0.651478 3.15491 0.362293 128 41 45
-0.647364 3.15493 0.362295 172 84 90
-0.714634 3.15491 0.359558 32 1 3
-0.710517 3.15491 0.359559 88 27 23
-0.650107 3.15492 0.35956 153 59 65
-0.645986 3.15491 0.359558 149 64 81
-0.714634 3.15491 0.358191 31 2 3
-0.654226 3.15492 0.358192 92 12 21
-0.650107 3.15492 0.358192 137 47 50
-0.641869 3.15492 0.358192 86 23 34
-0.714634 3.15491 0.356824 27 1 2
-0.710517 3.15491 0.356825 72 24 16
-0.65285 3.1549 0.356823 97 20 22
-0.720124 3.1549 0.354088 72 14 22
-0.714634 3.15491 0.354089 22 3 2
-0.718752 3.1549 0.352722 55 8 8
-0.714634 3.15491 0.352722 26 4 5
-0.710517 3.15491 0.352723 58 12 6
-0.643242 3.15492 0.352724 100 38 42
0.851565 3.0719 0.34211 93 94 99
0.62411 1.04224 0.116073 94 81 64
-0.720124 3.1549 0.347253 70 17 21
-0.710517 3.15491 0.336317 81 31 28
-0.714634 3.15491 0.33495 16 1 1
-0.710517 3.15491 0.33495 79 28 26
-0.710517 3.15491 0.333583 90 35 35
-0.666581 3.15491 0.329482 196 86 104
-0.639236 3.24255 0.338634 157 78 84
-0.710517 3.15491 0.324013 86 26 19
-0.669329 3.15492 0.324014 195 98 105
-0.665212 3.15493 0.324015 136 51 72
-0.729342 4.16896 0.428157 0 15 30
-0.710517 3.15491 0.322646 91 30 23
-0.666581 3.15491 0.322646 154 68 80
-0.63783 3.24257 0.316155 175 67 66
-0.74386 4.16899 0.406481 44 12 1
-0.732974 4.16899 0.406481 23 24 27
-0.63783 3.24257 0.31475 181 70 74
-0.74386 4.16899 0.404675 45 18 2
-0.738415 4.16897 0.404673 19 4 0
-0.732974 4.16899 0.404674 25 26 28
-0.714634 3.15491 0.303506 17 1 1
-0.662464 3.15492 0.303507 177 92 106
-0.636417 3.24257 0.311938 194 92 95
-0.749305 4.169 0.401062 85 46 12
-0.738415 4.16897 0.40106 21 3 0
-0.732974 4.16899 0.401061 30 29 33
-0.727532 4.16899 0.401061 0 1 9
0.251367 4.02523 0.387231 102 65 1
-0.714634 3.15491 0.302139 22 1 1
-0.662464 3.15492 0.30214 180 93 107
-0.64206 3.24256 0.310533 164 57 68
-0.63783 3.24257 0.310534 188 80 83
-0.752373 4.02525 0.38549 81 51 12
-0.747112 4.02522 0.385487 106 85 51
-0.74386 4.16899 0.399255 45 20 0
-0.738415 4.16897 0.399254 17 1 0
-0.714634 3.15491 0.300771 26 1 1
-0.661093 3.15493 0.300774 167 78 94
-0.640649 3.24255 0.309127 177 64 77
-0.636417 3.24257 0.309128 192 94 95
-0.632181 3.24255 0.309127 152 105 118
-0.754125 4.02525 0.383745 74 40 0
-0.747112 4.02522 0.383742 110 89 59
-0.749305 4.169 0.397449 88 47 3
-0.74386 4.16899 0.397448 45 20 0
-0.738415 4.16897 0.397447 18 2 1
-0.732974 4.16899 0.397448 28 23 34
-0.662464 3.15492 0.299405 167 72 95
-0.636417 3.24257 0.307723 195 97 100
-0.749305 4.169 0.395643 83 42 1
-0.74386 4.16899 0.395642 45 20 0
-0.738415 4.16897 0.395641 18 2 0
-0.732974 4.16899 0.395642 28 25 37
0.168724 4.16901 0.395644 44 54 53
0.237354 4.02524 0.382 140 94 55
0.246112 4.02522 0.381999 146 106 33
0.253119 4.02524 0.382 132 79 28
0.577396 1.04225 0.0989109 27 20 21
0.578757 1.04225 0.0989109 47 37 36
0.574757 1.03302 0.0980352 56 44 47
0.570833 1.02397 0.0971759 60 54 43
-0.714634 3.15491 0.298037 28 1 2
-0.710517 3.15491 0.298038 81 25 23
-0.632181 3.24255 0.306316 227 148 163
-0.749305 4.169 0.393836 85 45 5
-0.74386 4.16899 0.393835 44 20 0
-0.732974 4.16899 0.393835 30 33 46
0.168724 4.16901 0.393837 48 59 58
0.661305 2.0845 0.196918 65 72 79
0.582826 1.05164 0.0993462 36 24 23
0.584201 1.05164 0.0993464 57 45 42
0.574757 1.03302 0.0975875 63 52 52
-0.714634 3.15491 0.29667 25 1 1
-0.710517 3.15491 0.296671 88 29 28
-0.706397 3.15491 0.296671 127 41 43
-0.695411 3.1549 0.296669 141 53 56
-0.632181 3.24255 0.304911 230 136 153
-0.749305 4.169 0.39203 76 41 0
-0.74386 4.16899 0.392029 41 17 0
-0.738415 4.16897 0.392027 13 2 0
-0.732974 4.16899 0.392028 28 34 50
-0.727532 4.16899 0.392029 0 3 20
1.1049 3.6479 0.343028 58 60 60
0.662209 2.08449 0.196014 79 81 83
-0.714634 3.15491 0.293936 22 1 1
-0.710517 3.15491 0.293936 99 32 31
-0.705028 3.15493 0.293938 173 93 90
-0.696787 3.15491 0.293936 139 42 46
-0.636417 3.24257 0.302103 206 95 114
-0.632181 3.24255 0.302101 240 133 153
-0.627947 3.24254 0.302101 173 90 124
-0.749305 4.169 0.388417 80 47 4
-0.74386 4.16899 0.388416 41 17 0
-0.738415 4.16897 0.388414 18 2 0
-0.732974 4.16899 0.388415 35 49 60
-0.727532 4.16899 0.388416 0 1 9
0.235601 4.02522 0.375021 119 82 32
0.661305 2.0845 0.194208 73 73 86
-0.710517 3.15491 0.292569 91 26 28
-0.740238 4.16902 0.386612 21 2 0
-0.729342 4.16896 0.386606 0 12 33
0.661305 2.0845 0.193305 72 74 88
-0.714634 3.15491 0.291202 24 1 1
-0.710517 3.15491 0.291202 92 31 33
-0.714634 3.15491 0.289835 24 0 1
-0.710517 3.15491 0.289835 83 27 27
-0.710517 3.15491 0.285734 75 20 15
-0.199818 3.89108 0.340603 40 37 36
-0.651478 3.15491 0.274796 76 8 4
-0.647364 3.15493 0.274798 113 28 31
-0.645986 3.15491 0.272062 118 29 35
-0.198125 3.89107 0.335545 20 20 20
-0.20151 3.89104 0.333856 30 30 30
-0.196431 3.89106 0.333858 27 27 27
-0.651478 3.15491 0.269328 90 17 21
-0.647364 3.15493 0.269329 120 32 39
-0.643242 3.15492 0.269329 152 56 62
-0.20151 3.89104 0.33217 44 44 44
-0.64873 3.1549 0.26796 94 11 27
-0.644614 3.15492 0.267961 142 47 54
-0.199818 3.89108 0.330487 39 37 37
0.237354 4.02524 0.28781 1 31 30
-0.261887 4.02523 0.286064 30 33 19
-0.71189 3.15492 0.221479 3 0 0
-0.261887 4.02523 0.282576 24 27 14
-0.71189 3.15492 0.220112 0 0 0
-0.70777 3.15491 0.220111 60 16 10
-0.267142 4.02523 0.280832 63 56 57
-0.261887 4.02523 0.280832 22 25 15
-0.70777 3.15491 0.218744 55 14 6
-0.267142 4.02523 0.279087 58 55 55
-0.261887 4.02523 0.279087 25 29 22
0.0726923 4.02525 0.2756 205 213 226
-0.71189 3.15492 0.214643 5 0 0
-0.70777 3.15491 0.214643 50 7 9
-0.633634 3.15493 0.214644 201 92 103
-0.265393 4.02527 0.273857 20 28 14
-0.260137 4.02526 0.273857 49 41 38
-0.254879 4.02521 0.273853 92 93 98
0.0691882 4.02523 0.273854 147 152 164
-0.71189 3.15492 0.211909 9 0 0
-0.70777 3.15491 0.211908 54 14 15
-0.703654 3.15493 0.21191 90 20 18
-0.265393 4.02527 0.270369 23 31 20
-0.260137 4.02526 0.270368 40 36 41
-0.254879 4.02521 0.270364 86 85 88
0.0674368 4.02525 0.270367 118 119 123
0.0726923 4.02525 0.270368 220 226 233
0.0779474 4.02525 0.270367 106 105 110
-0.710517 3.15491 0.209174 8 0 1
-0.706397 3.15491 0.209174 67 14 13
-0.70228 3.15492 0.209175 103 40 42
-0.694041 3.15491 0.209174 76 17 13
-0.633634 3.15493 0.209176 185 79 85
-0.265393 4.02527 0.26688 29 29 28
-0.260137 4.02526 0.26688 48 47 51
-0.254879 4.02521 0.266876 90 90 90
0.0691882 4.02523 0.266877 133 140 148
0.0744442 4.02527 0.26688 224 228 240
0.0796992 4.02526 0.266879 100 100 102
0.718252 3.24255 0.214985 30 155 116
-0.71189 3.15492 0.207808 13 0 1
-0.70777 3.15491 0.207807 38 2 3
-0.699531 3.15491 0.207807 126 58 65
-0.260137 4.02526 0.265135 56 56 55
-0.254879 4.02521 0.265132 88 88 88
0.0691882 4.02523 0.265133 131 134 142
0.0744442 4.02527 0.265136 229 235 245
0.0796992 4.02526 0.265135 106 108 113
0.714017 3.24255 0.21358 143 150 134
0.718252 3.24255 0.21358 19 153 112
-0.71189 3.15492 0.20644 10 0 0
-0.70777 3.15491 0.20644 36 2 2
-0.703654 3.15493 0.206441 98 38 36
-0.258383 4.02522 0.263388 113 113 113
0.0709396 4.0252 0.263387 160 167 179
0.0761955 4.02524 0.263389 198 209 224
-0.710517 3.15491 0.205073 7 0 0
-0.706397 3.15491 0.205073 57 7 12
-0.696787 3.15491 0.205073 80 15 25
-0.253128 4.02524 0.261645 61 53 58
0.0709396 4.0252 0.261643 147 154 165
0.0761955 4.02524 0.261645 213 220 234
0.714017 3.24255 0.21077 161 164 164
0.0709396 4.0252 0.259899 137 145 158
0.0761955 4.02524 0.259901 222 230 242
-0.254879 4.02521 0.254666 67 74 78
-0.267142 4.02523 0.245946 35 31 31
-0.700906 3.15491 0.1873 91 36 32
-0.703654 3.15493 0.176364 81 26 30
-0.658342 3.15491 0.176363 178 85 102
-0.650107 3.15492 0.176364 91 6 8
-0.645986 3.15491 0.176363 70 2 2
-0.263639 4.02523 0.225015 32 38 30
-0.258383 4.02522 0.225015 178 179 179
-0.703654 3.15493 0.174997 75 17 32
-0.656973 3.15492 0.174997 145 52 70
-0.65285 3.1549 0.174996 147 42 54
-0.268896 4.02526 0.223273 60 45 42
-0.263639 4.02523 0.223271 30 33 28
-0.258383 4.02522 0.22327 170 171 174
-0.658342 3.15491 0.170894 198 110 123
-0.654226 3.15492 0.170895 141 42 51
-0.267142 4.02523 0.204084 39 32 34
-0.256633 4.02525 0.204085 132 132 134
-0.251376 4.02523 0.204084 43 43 27
-0.246121 4.02522 0.204084 85 86 71
-0.705028 3.15493 0.155857 50 6 2
-0.265393 4.02527 0.198853 34 31 20
-0.260137 4.02526 0.198853 120 116 117
-0.254879 4.02521 0.19885 73 72 75
-0.249624 4.02521 0.19885 36 30 18
-0.705028 3.15493 0.15449 40 3 1
-0.270647 4.02526 0.197108 101 92 91
-0.265393 4.02527 0.197108 24 28 15
-0.260137 4.02526 0.197108 113 110 111
-0.254879 4.02521 0.197105 76 76 78
-0.249624 4.02521 0.197106 39 32 16
0.47182 3.53733 0.173215 149 177 202
-0.705028 3.15493 0.153123 36 5 3
-0.270647 4.02526 0.195364 95 90 91
-0.265393 4.02527 0.195364 22 25 15
-0.260137 4.02526 0.195364 115 115 116
-0.254879 4.02521 0.195361 74 74 75
-0.249624 4.02521 0.195362 45 33 19
-0.703654 3.15493 0.150389 55 11 11
-0.265393 4.02527 0.191876 30 27 26
-0.260137 4.02526 0.191876 119 119 122
-0.254879 4.02521 0.191873 77 77 80
-0.249624 4.02521 0.191873 43 29 29
0.467204 3.53734 0.168618 89 112 121
0.47182 3.53733 0.168617 123 143 158
-0.265393 4.02527 0.190132 29 26 26
-0.260137 4.02526 0.190131 118 114 117
-0.254879 4.02521 0.190129 78 80 82
-0.249624 4.02521 0.190129 42 32 34
0.464123 3.53733 0.167084 83 97 111
0.468741 3.53733 0.167084 84 101 113
-0.267142 4.02523 0.188386 34 32 31
-0.261887 4.02523 0.188385 62 57 61
-0.256633 4.02525 0.188387 142 141 146
-0.251376 4.02523 0.188385 38 37 37
-0.246121 4.02522 0.188385 86 76 73
0.350835 3.6479 0.170726 177 206 237
0.464123 3.53733 0.165551 93 108 123
0.468741 3.53733 0.165551 79 87 103
-0.640492 3.1549 0.143552 119 26 19
-0.265393 4.02527 0.183154 19 17 12
-0.260137 4.02526 0.183154 111 109 107
-0.254879 4.02521 0.183152 76 77 80
0.465661 3.53732 0.160952 102 124 135
-0.265393 4.02527 0.18141 23 24 21
-0.260137 4.02526 0.18141 106 106 105
-0.254879 4.02521 0.181407 74 75 78
0.344483 3.64787 0.164401 91 122 134
0.35401 3.64789 0.164402 211 218 228
-0.260137 4.02526 0.179665 102 104 103
-0.254879 4.02521 0.179663 73 75 76
-0.270647 4.02526 0.174432 104 99 97
-0.265393 4.02527 0.174433 23 25 19
-0.260137 4.02526 0.174433 109 113 112
-0.254879 4.02521 0.17443 80 81 72
-0.249624 4.02521 0.174431 46 38 18
-0.270647 4.02526 0.170944 106 105 99
-0.265393 4.02527 0.170944 30 30 27
-0.260137 4.02526 0.170944 106 109 112
-0.254879 4.02521 0.170942 72 73 70
-0.249624 4.02521 0.170942 47 37 15
-0.0516803 4.02522 0.170942 174 175 177
0.344483 3.64787 0.154917 156 184 211
-0.270647 4.02526 0.1692 103 102 97
-0.265393 4.02527 0.1692 30 27 25
-0.260137 4.02526 0.1692 110 108 114
-0.254879 4.02521 0.169198 77 78 81
-0.249624 4.02521 0.169198 42 39 26
-0.0516803 4.02522 0.169198 199 199 199
0.342896 3.64788 0.153337 141 174 198
-0.270647 4.02526 0.167455 102 101 99
-0.265393 4.02527 0.167456 36 32 33
-0.260137 4.02526 0.167456 110 108 113
-0.254879 4.02521 0.167453 78 82 90
-0.249624 4.02521 0.167454 37 34 27
0.344483 3.64787 0.151755 177 198 227
-0.651478 3.15491 0.129881 160 48 59
-0.641869 3.15492 0.129881 71 1 1
-0.270647 4.02526 0.165711 101 98 99
-0.265393 4.02527 0.165711 37 33 34
-0.258383 4.02522 0.165709 164 163 167
-0.251376 4.02523 0.16571 44 42 40
-0.0551839 4.02524 0.16571 115 125 119
0.342896 3.64788 0.150175 159 184 214
-0.641869 3.15492 0.128514 73 1 2
-0.637745 3.15489 0.128513 108 14 20
-0.662861 3.76554 0.153387 145 163 182
-0.657949 3.76556 0.153388 108 111 133
-0.270647 4.02526 0.163967 108 101 105
-0.265393 4.02527 0.163967 36 33 34
-0.260137 4.02526 0.163967 110 110 112
-0.254879 4.02521 0.163965 68 71 76
-0.249624 4.02521 0.163965 48 40 35
-0.04117 4.02523 0.163966 113 113 111
-0.65285 3.1549 0.127146 161 56 63
-0.64873 3.1549 0.127146 137 35 36
-0.644614 3.15492 0.127147 96 8 14
-0.603958 3.24255 0.130678 205 97 105
-0.661223 3.76554 0.151756 144 154 172
-0.656306 3.76553 0.151755 95 94 115
-0.270647 4.02526 0.162222 116 107 106
-0.265393 4.02527 0.162223 31 31 29
-0.260137 4.02526 0.162223 112 112 114
-0.254879 4.02521 0.16222 73 76 78
-0.249624 4.02521 0.162221 47 40 30
-0.0569354 4.02523 0.162221 79 77 72
-0.0516803 4.02522 0.162221 97 97 89
0.342896 3.64788 0.147014 173 196 226
0.38576 3.64789 0.147014 15 30 45
0.39052 3.64786 0.147013 96 109 123
0.395282 3.64786 0.147013 94 101 111
0.400046 3.64788 0.147014 8 21 27
0.470279 3.53732 0.142558 90 96 113
0.4692 1.28277 0.051697 121 107 90
-0.640492 3.1549 0.124412 69 2 1
-0.636377 3.15492 0.124412 121 35 27
-0.270647 4.02526 0.158734 105 98 89
-0.265393 4.02527 0.158734 32 32 29
-0.260137 4.02526 0.158734 108 108 110
-0.254879 4.02521 0.158732 81 79 75
-0.249624 4.02521 0.158732 45 40 26
0.398458 3.64787 0.143852 40 54 71
0.403218 3.64785 0.143851 46 65 83
0.470279 3.53732 0.139492 55 71 94
0.609147 1.04225 0.0411006 91 64 43
0.60488 1.03303 0.0407369 124 95 45
-0.636377 3.15492 0.123045 113 24 15
-0.661223 3.76554 0.146861 148 164 185
-0.656306 3.76553 0.14686 102 109 123
-0.270647 4.02526 0.15699 108 104 98
-0.265393 4.02527 0.15699 26 26 23
-0.260137 4.02526 0.15699 108 105 108
-0.254879 4.02521 0.156988 76 76 76
0.404809 3.64788 0.142272 68 97 113
0.473358 3.53732 0.137959 79 97 120
0.609597 1.04225 0.0406489 90 63 46
0.605328 1.03303 0.0402892 123 94 41
-0.270647 4.02526 0.155245 104 102 98
-0.265393 4.02527 0.155246 28 28 25
-0.260137 4.02526 0.155245 109 105 107
-0.254879 4.02521 0.155243 75 75 76
0.609597 1.04225 0.0401972 80 58 43
0.610961 1.04225 0.0401974 116 86 42
-0.270647 4.02526 0.153501 103 98 96
-0.265393 4.02527 0.153502 27 28 23
-0.260137 4.02526 0.153501 102 104 104
-0.254879 4.02521 0.153499 80 78 83
-0.249624 4.02521 0.1535 31 30 23
-0.0464254 4.02523 0.1535 48 53 48
0.473358 3.53732 0.134894 124 141 159
0.610506 1.04225 0.0397457 97 70 36
-0.655597 3.15491 0.117577 163 58 77
-0.643242 3.15492 0.117577 104 18 16
-0.66614 3.76555 0.140334 159 184 209
-0.661223 3.76554 0.140334 155 162 182
-0.656306 3.76553 0.140333 107 111 121
-0.651392 3.76554 0.140334 89 67 77
-0.270647 4.02526 0.150013 105 103 97
-0.265393 4.02527 0.150013 32 31 34
-0.258383 4.02522 0.150011 157 159 161
-0.253128 4.02524 0.150012 59 59 60
-0.247874 4.02524 0.150012 45 44 33
-0.04117 4.02523 0.150012 28 26 27
-0.0359152 4.02526 0.150013 81 70 68
0.479517 3.53733 0.131829 78 80 98
0.608103 3.4333 0.127952 58 56 68
0.469758 1.28277 0.0478059 118 99 100
0.606225 1.03302 0.0384985 101 77 31
-0.659718 3.15492 0.11621 206 108 117
-0.632261 3.15493 0.11621 160 57 62
-0.66614 3.76555 0.138702 153 186 208
-0.656306 3.76553 0.138702 112 113 128
-0.270647 4.02526 0.148268 108 107 100
-0.265393 4.02527 0.148269 33 29 31
-0.258383 4.02522 0.148267 166 166 170
-0.253128 4.02524 0.148268 58 58 60
-0.0551839 4.02524 0.148268 19 18 7
-0.0481769 4.02523 0.148267 44 39 39
-0.042922 4.02523 0.148268 21 20 20
-0.0376666 4.02523 0.148267 51 44 47
0.065685 4.02523 0.148267 158 181 199
0.0832019 4.02523 0.148267 147 154 183
0.0884575 4.02523 0.148267 177 176 189
0.47644 3.53734 0.130296 133 137 152
0.605113 3.43329 0.126464 79 79 86
0.609596 3.43329 0.126464 59 60 67
0.468644 1.28277 0.0472503 115 107 105
-0.655597 3.15491 0.114842 181 85 105
-0.643242 3.15492 0.114843 111 21 21
-0.639118 3.15489 0.114842 71 4 1
-0.635003 3.15492 0.114843 141 50 47
-0.630886 3.15492 0.114843 161 63 69
-0.659586 3.76555 0.137071 136 146 167
-0.654668 3.76554 0.13707 108 102 119
-0.649753 3.76555 0.13707 77 67 80
-0.270647 4.02526 0.146524 108 103 97
-0.265393 4.02527 0.146525 29 24 26
-0.260137 4.02526 0.146524 107 107 109
-0.254879 4.02521 0.146522 80 78 84
-0.249624 4.02521 0.146523 33 33 29
-0.244368 4.02521 0.146522 107 92 87
-0.0551839 4.02524 0.146524 18 17 8
-0.049929 4.02526 0.146524 51 46 50
-0.0446734 4.02523 0.146523 35 30 27
-0.0394187 4.02527 0.146525 46 46 49
0.065685 4.02523 0.146523 161 184 203
0.0726923 4.02525 0.146524 116 134 168
0.0832019 4.02523 0.146523 141 150 182
0.0884575 4.02523 0.146523 166 167 179
0.47182 3.53733 0.128763 150 164 175
0.605113 3.43329 0.124976 73 73 74
0.469758 1.28277 0.0466943 115 108 105
0.473109 1.28277 0.0466943 47 37 21
-0.656973 3.15492 0.113476 208 123 137
-0.643242 3.15492 0.113476 113 19 25
-0.639118 3.15489 0.113475 73 4 1
-0.635003 3.15492 0.113475 133 46 39
-0.659586 3.76555 0.135439 135 144 164
-0.654668 3.76554 0.135438 119 112 129
-0.270647 4.02526 0.14478 103 99 93
-0.265393 4.02527 0.14478 26 26 23
-0.258383 4.02522 0.144778 166 166 169
-0.251376 4.02523 0.144779 41 40 37
-0.246121 4.02522 0.144778 80 66 64
-0.0621905 4.02523 0.144778 97 88 84
-0.0551839 4.02524 0.144779 20 14 11
-0.0481769 4.02523 0.144779 61 55 53
-0.042922 4.02523 0.144779 30 30 27
-0.0376666 4.02523 0.144778 54 54 56
0.0586784 4.02526 0.14478 139 153 173
0.065685 4.02523 0.144779 168 184 204
0.0832019 4.02523 0.144779 139 150 183
0.0884575 4.02523 0.144779 166 169 179
0.47182 3.53733 0.12723 140 150 158
0.47644 3.53734 0.12723 92 94 99
0.470875 1.28277 0.0461383 103 95 84
0.473109 1.28277 0.0461384 52 42 32
-0.637745 3.15489 0.112108 73 4 0
-0.659586 3.76555 0.133807 138 146 166
-0.270647 4.02526 0.143036 107 106 100
-0.265393 4.02527 0.143036 26 29 24
-0.260137 4.02526 0.143036 104 104 104
-0.254879 4.02521 0.143034 84 83 88
-0.249624 4.02521 0.143034 39 27 17
-0.244368 4.02521 0.143034 108 94 92
-0.0481769 4.02523 0.143035 55 53 47
-0.042922 4.02523 0.143035 27 27 23
0.0902088 4.02523 0.143035 138 141 147
0.473358 3.53732 0.125697 99 107 115
0.505688 3.53734 0.125698 44 81 68
-0.637745 3.15489 0.11074 81 7 2
-0.659586 3.76555 0.132175 130 140 162
-0.654668 3.76554 0.132175 119 117 128
-0.267142 4.02523 0.14129 28 35 25
-0.261887 4.02523 0.14129 51 54 53
-0.256633 4.02525 0.141291 148 146 149
-0.251376 4.02523 0.14129 44 40 36
-0.0481769 4.02523 0.14129 54 53 43
-0.042922 4.02523 0.14129 30 33 26
0.0814511 4.02526 0.141291 92 117 156
0.0867056 4.02523 0.14129 160 174 187
0.508767 3.53734 0.124165 43 111 93
0.470875 1.28277 0.0450266 98 92 86
-0.639118 3.15489 0.109373 82 4 5
-0.635003 3.15492 0.109374 118 27 25
-0.630886 3.15492 0.109374 143 44 46
-0.267142 4.02523 0.139546 26 37 27
-0.261887 4.02523 0.139546 54 57 54
-0.256633 4.02525 0.139547 149 149 152
-0.251376 4.02523 0.139546 53 50 50
-0.246121 4.02522 0.139546 80 63 49
-0.0551839 4.02524 0.139546 25 18 14
-0.04117 4.02523 0.139546 28 30 23
0.0814511 4.02526 0.139547 95 115 155
0.505688 3.53734 0.122632 48 75 66
0.473109 1.28277 0.0444709 42 36 30
-0.641869 3.15492 0.108007 119 24 32
-0.637745 3.15489 0.108006 84 4 6
-0.633634 3.15493 0.108008 124 29 31
-0.267142 4.02523 0.137802 28 38 29
-0.261887 4.02523 0.137802 51 53 50
-0.256633 4.02525 0.137803 143 142 147
-0.249624 4.02521 0.137801 46 39 33
-0.244368 4.02521 0.137801 105 93 82
-0.0481769 4.02523 0.137802 57 54 46
-0.633634 3.15493 0.103906 121 36 20
-0.258383 4.02522 0.132569 157 159 162
-0.253128 4.02524 0.132569 58 58 55
-0.247874 4.02524 0.132569 39 44 32
0.472549 1.28277 0.0422473 45 43 29
-0.637745 3.15489 0.101171 77 1 7
-0.632261 3.15493 0.101172 133 46 37
-0.267142 4.02523 0.129081 42 34 31
-0.261887 4.02523 0.12908 53 53 53
-0.256633 4.02525 0.129081 151 153 156
-0.249624 4.02521 0.12908 37 41 26
-0.0569354 4.02523 0.129081 28 32 30
-0.049929 4.02526 0.129082 80 79 85
0.472549 1.28277 0.0411356 43 38 19
-0.637745 3.15489 0.0984364 83 3 12
-0.633634 3.15493 0.0984376 108 18 24
-0.270647 4.02526 0.125593 116 109 104
-0.265393 4.02527 0.125593 23 25 25
-0.258383 4.02522 0.125592 162 162 164
-0.0621905 4.02523 0.125592 106 96 94
-0.0569354 4.02523 0.125592 30 29 26
-0.049929 4.02526 0.125593 84 91 97
0.470317 1.28277 0.0400239 117 109 103
0.472549 1.28277 0.0400238 40 38 22
0.474226 1.28277 0.040024 86 74 62
-0.709144 3.15491 0.0970697 10 0 0
-0.637745 3.15489 0.0970692 80 2 4
-0.632261 3.15493 0.0970703 124 28 32
-0.379309 3.89105 0.119719 218 220 222
-0.270647 4.02526 0.123848 116 108 103
-0.265393 4.02527 0.123849 27 27 27
-0.258383 4.02522 0.123847 164 164 166
-0.0621905 4.02523 0.123847 109 99 96
-0.0569354 4.02523 0.123847 33 30 27
-0.0516803 4.02522 0.123847 47 51 54
-0.0464254 4.02523 0.123848 69 71 75
0.470317 1.28277 0.039468 118 105 100
0.472549 1.28277 0.0394679 37 30 22
0.474226 1.28277 0.0394681 100 89 76
-0.637745 3.15489 0.0957019 92 8 12
-0.632261 3.15493 0.095703 127 27 33
-0.265393 4.02527 0.122104 27 28 26
-0.0569354 4.02523 0.122103 34 32 29
-0.0516803 4.02522 0.122103 52 55 58
0.471433 1.28277 0.038912 67 58 54
-0.709144 3.15491 0.0943356 7 0 0
