ply
format ascii 1.0
element vertex 1222
property float x
property float y
property float z
property uchar red
property uchar green
property uchar blue
end_header
-0.0541428 0.608644 0.117925 153 153 153
-0.052806 0.608644 0.117925 128 128 128
-0.0514691 0.608644 0.117925 90 90 90
-0.0504621 0.616759 0.119498 89 89 89
-0.048684 0.642457 0.124477 98 98 98
-0.0458619 0.642458 0.124477 110 110 110
-0.110995 0.633656 0.12207 0 0 0
-0.107093 0.625093 0.120421 19 19 19
-0.0594902 0.608644 0.117252 244 244 244
-0.0581533 0.608643 0.117252 233 233 233
-0.0568165 0.608643 0.117252 214 214 214
-0.0554796 0.608643 0.117251 193 193 193
-0.0541428 0.608644 0.117252 165 165 165
-0.052806 0.608644 0.117252 130 130 130
-0.0508007 0.608644 0.117252 75 75 75
-0.0497847 0.616758 0.118815 75 75 75
-0.0493896 0.642457 0.123766 82 82 82
-0.0479785 0.642457 0.123765 93 93 93
-0.0458619 0.642458 0.123766 101 101 101
-0.0444507 0.642457 0.123765 158 158 158
0.168563 0.700862 0.135017 133 133 133
0.17311 0.711645 0.137094 120 120 120
0.171641 0.700862 0.135017 111 111 111
0.169582 0.680249 0.131046 108 108 108
0.171076 0.68025 0.131046 83 83 83
-0.111422 0.616758 0.118132 1 1 1
-0.110995 0.633656 0.121369 15 15 15
-0.109603 0.633656 0.121369 23 23 23
-0.105719 0.625092 0.119728 84 84 84
-0.104347 0.625094 0.119729 132 132 132
-0.0588217 0.608643 0.116578 247 247 247
-0.0574849 0.608644 0.116578 238 238 238
-0.0561481 0.608644 0.116578 222 222 222
-0.0548113 0.608644 0.116578 200 200 200
-0.0534744 0.608644 0.116578 162 162 162
-0.0501323 0.608644 0.116578 70 70 70
-0.048684 0.642457 0.123054 88 88 88
-0.0465674 0.642457 0.123054 100 100 100
-0.0451562 0.642456 0.123054 124 124 124
-0.0437452 0.642458 0.123054 202 202 202
0.163285 0.734237 0.140634 163 163 163
0.16893 0.734238 0.140634 155 155 155
0.168563 0.700862 0.134241 135 135 135
0.170102 0.700863 0.134241 127 127 127
0.171641 0.700862 0.134241 107 107 107
0.170329 0.680249 0.130293 108 108 108
0.171823 0.68025 0.130293 67 67 67
0.173317 0.680249 0.130293 47 47 47
-0.112184 0.642457 0.12092 139 139 139
-0.109603 0.633656 0.119264 164 164 164
-0.108212 0.633656 0.119264 179 179 179
-0.0558807 0.616758 0.116083 241 241 241
-0.054526 0.616759 0.116084 214 214 214
-0.0493896 0.642457 0.12092 83 83 83
-0.047273 0.642457 0.12092 96 96 96
-0.0458619 0.642458 0.12092 106 106 106
-0.0444507 0.642457 0.12092 168 168 168
0.169606 0.746081 0.140424 155 155 155
0.171244 0.74608 0.140424 141 141 141
0.172883 0.746079 0.140424 147 147 147
0.174522 0.74608 0.140424 147 147 147
0.169333 0.700864 0.131913 130 130 130
0.164547 0.67039 0.126178 113 113 113
0.16602 0.670391 0.126178 109 109 109
0.167492 0.67039 0.126178 104 104 104
0.168965 0.670391 0.126178 66 66 66
-0.107779 0.625093 0.11696 186 186 186
-0.048684 0.642457 0.120209 85 85 85
-0.0465674 0.642457 0.120209 102 102 102
-0.0451562 0.642456 0.120209 130 130 130
-0.0437452 0.642458 0.120209 210 210 210
0.159543 0.722765 0.135235 161 161 161
0.158261 0.711646 0.133155 167 167 167
0.162168 0.711645 0.133155 151 151 151
0.169333 0.700864 0.131137 132 132 132
0.167943 0.690402 0.12918 119 119 119
0.169459 0.690403 0.12918 112 112 112
0.168088 0.68025 0.12728 116 116 116
0.169582 0.680249 0.12728 96 96 96
0.168229 0.670392 0.125436 93 93 93
0.17257 0.680249 0.12728 52 52 52
-0.110773 0.642457 0.118075 196 196 196
-0.047273 0.642457 0.118075 97 97 97
-0.0458619 0.642458 0.118075 108 108 108
0.169736 0.734236 0.134943 152 152 152
0.169459 0.690403 0.126887 108 108 108
0.170976 0.690403 0.126887 94 94 94
0.174766 0.690402 0.126887 62 62 62
-0.109603 0.633656 0.115756 202 202 202
-0.047273 0.642457 0.117364 99 99 99
-0.0458619 0.642458 0.117364 117 117 117
0.157479 0.711646 0.130003 159 159 159
0.174522 0.74608 0.136294 149 149 149
0.169459 0.690403 0.126123 117 117 117
0.167492 0.67039 0.122467 111 111 111
0.168965 0.670391 0.122467 72 72 72
-0.0479785 0.642457 0.11523 86 86 86
0.169582 0.680249 0.122008 100 100 100
-0.049061 0.633656 0.11295 84 84 84
-0.0479785 0.642457 0.114519 89 89 89
-0.0465674 0.642457 0.114519 105 105 105
0.169459 0.690403 0.123065 115 115 115
0.168088 0.68025 0.121255 98 98 98
0.169582 0.680249 0.121255 109 109 109
0.171076 0.68025 0.121255 89 89 89
-0.0479785 0.642457 0.111673 95 95 95
-0.0465674 0.642457 0.111674 112 112 112
0.168088 0.68025 0.118243 108 108 108
0.169582 0.680249 0.118243 99 99 99
-0.0479785 0.642457 0.110251 105 105 105
-0.0465674 0.642457 0.110251 112 112 112
0.169459 0.690403 0.118479 112 112 112
0.168088 0.68025 0.116737 98 98 98
0.170329 0.680249 0.116736 96 96 96
-0.0493896 0.642457 0.108117 88 88 88
-0.0479785 0.642457 0.108117 111 111 111
-0.0465674 0.642457 0.108117 162 162 162
0.158557 0.700863 0.117946 149 149 149
0.163731 0.711644 0.11976 143 143 143
0.170102 0.700863 0.117946 127 127 127
0.168701 0.690401 0.116185 104 104 104
0.16734 0.680249 0.114477 94 94 94
0.169582 0.680249 0.114477 90 90 90
0.169701 0.670391 0.112818 55 55 55
-0.14231 0.633657 0.105935 129 129 129
-0.140919 0.633657 0.105935 79 79 79
-0.139527 0.633655 0.105934 52 52 52
-0.138135 0.633657 0.105935 44 44 44
-0.136743 0.633656 0.105934 26 26 26
-0.135351 0.633656 0.105934 23 23 23
-0.129674 0.608643 0.101753 22 22 22
-0.128355 0.616758 0.10311 32 32 32
-0.0500951 0.642457 0.107406 82 82 82
-0.048684 0.642457 0.107406 103 103 103
-0.047273 0.642457 0.107406 155 155 155
-0.0458619 0.642458 0.107406 205 205 205
0.161924 0.722765 0.120832 164 164 164
0.160605 0.711645 0.118973 148 148 148
0.162168 0.711645 0.118973 149 149 149
0.163731 0.711644 0.118972 135 135 135
0.172155 0.734238 0.12275 136 136 136
0.169202 0.711644 0.118973 133 133 133
0.170765 0.711646 0.118973 130 130 130
0.172328 0.711645 0.118973 125 125 125
0.170872 0.700863 0.11717 106 106 106
0.170217 0.690403 0.115421 107 107 107
0.168835 0.680249 0.113724 93 93 93
0.170329 0.680249 0.113724 96 96 96
0.168965 0.670391 0.112076 74 74 74
0.170437 0.67039 0.112076 51 51 51
-0.139193 0.616758 0.102427 134 134 134
-0.137161 0.616758 0.102427 75 75 75
-0.135806 0.616759 0.102427 46 46 46
-0.134451 0.616759 0.102427 22 22 22
-0.132419 0.616758 0.102427 31 31 31
-0.12971 0.616759 0.102427 37 37 37
-0.128355 0.616758 0.102427 23 23 23
-0.0508008 0.642457 0.106695 85 85 85
-0.048684 0.642457 0.106694 93 93 93
-0.047273 0.642457 0.106695 166 166 166
0.162718 0.722764 0.120031 144 144 144
0.164306 0.722765 0.120032 150 150 150
0.165893 0.722765 0.120031 149 149 149
0.170765 0.711646 0.118185 130 130 130
0.175418 0.722765 0.120031 127 127 127
0.174673 0.711645 0.118185 99 99 99
0.168835 0.680249 0.112971 93 93 93
0.171076 0.68025 0.112971 88 88 88
0.173317 0.680249 0.112971 48 48 48
-0.0508008 0.642457 0.105983 76 76 76
-0.0493896 0.642457 0.105983 93 93 93
-0.0479785 0.642457 0.105983 122 122 122
-0.0465674 0.642457 0.105983 203 203 203
0.16651 0.734237 0.121124 156 156 156
0.165099 0.722765 0.119231 146 146 146
0.173702 0.746079 0.123077 138 138 138
0.172328 0.711645 0.117397 126 126 126
0.173892 0.711645 0.117397 106 106 106
0.169582 0.680249 0.112218 93 93 93
0.171076 0.68025 0.112218 83 83 83
-0.139527 0.633655 0.103128 56 56 56
-0.134451 0.616759 0.100378 33 33 33
-0.133179 0.625094 0.101735 30 30 30
-0.127669 0.608643 0.0990574 27 27 27
-0.0508008 0.642457 0.104561 78 78 78
-0.0493896 0.642457 0.104561 93 93 93
-0.0479785 0.642457 0.104561 133 133 133
0.157479 0.711646 0.115821 160 160 160
0.16651 0.734237 0.119498 152 152 152
0.168123 0.734236 0.119498 150 150 150
0.168274 0.722764 0.117631 143 143 143
0.165484 0.700863 0.114066 136 136 136
0.168563 0.700862 0.114066 131 131 131
0.170872 0.700863 0.114066 113 113 113
0.172412 0.700864 0.114066 97 97 97
0.171076 0.68025 0.110711 83 83 83
0.17257 0.680249 0.110711 47 47 47
-0.14579 0.633656 0.101024 98 98 98
-0.143702 0.633656 0.101024 95 95 95
-0.14231 0.633657 0.101024 65 65 65
-0.140919 0.633657 0.101024 69 69 69
-0.138831 0.633657 0.101024 41 41 41
-0.129033 0.616759 0.0983297 23 23 23
-0.0522119 0.642457 0.102427 67 67 67
-0.0508008 0.642457 0.102427 74 74 74
-0.0493896 0.642457 0.102427 90 90 90
-0.0479785 0.642457 0.102427 147 147 147
0.167967 0.74608 0.118947 144 144 144
0.168123 0.734236 0.117059 149 149 149
0.162405 0.700863 0.111738 131 131 131
0.17616 0.746079 0.118947 141 141 141
0.169333 0.700864 0.111739 122 122 122
0.170872 0.700863 0.111738 110 110 110
0.169459 0.690403 0.110071 105 105 105
0.170976 0.690403 0.110071 93 93 93
0.172492 0.690403 0.110071 91 91 91
0.171076 0.68025 0.108452 73 73 73
-0.14579 0.633656 0.100322 109 109 109
-0.144398 0.633656 0.100322 97 97 97
-0.143006 0.633656 0.100322 78 78 78
-0.140919 0.633657 0.100322 73 73 73
-0.139527 0.633655 0.100322 41 41 41
-0.138135 0.633657 0.100322 38 38 38
-0.133097 0.616759 0.0976468 24 24 24
-0.130343 0.608644 0.0963621 17 17 17
-0.0508008 0.642457 0.101716 86 86 86
-0.0493896 0.642457 0.101715 88 88 88
-0.0479785 0.642457 0.101715 149 149 149
0.16295 0.711646 0.11267 142 142 142
0.174522 0.74608 0.118121 139 139 139
0.169459 0.690403 0.109306 108 108 108
0.168088 0.68025 0.107699 99 99 99
-0.144398 0.633656 0.0996205 106 106 106
-0.141417 0.625093 0.0982744 88 88 88
-0.139357 0.625093 0.0982743 67 67 67
-0.137984 0.625093 0.0982743 32 32 32
-0.136612 0.625094 0.0982744 40 40 40
-0.135238 0.625093 0.0982743 27 27 27
-0.0508008 0.642457 0.101004 77 77 77
-0.0493896 0.642457 0.101004 91 91 91
-0.0479785 0.642457 0.101004 152 152 152
0.165893 0.722765 0.11363 142 142 142
0.16748 0.722764 0.11363 135 135 135
0.172328 0.711645 0.111882 110 110 110
0.172412 0.700864 0.110187 99 99 99
0.169582 0.680249 0.106946 80 80 80
-0.145094 0.633657 0.0989191 107 107 107
-0.141417 0.625093 0.0975823 104 104 104
-0.141614 0.633656 0.0989189 76 76 76
-0.140223 0.633657 0.0989191 46 46 46
-0.138831 0.633657 0.0989191 44 44 44
-0.138995 0.642457 0.100293 38 38 38
-0.13168 0.608644 0.0950144 21 21 21
-0.126341 0.600739 0.0937803 20 20 20
-0.0508008 0.642457 0.100293 81 81 81
-0.0493896 0.642457 0.100293 97 97 97
-0.0479785 0.642457 0.100293 158 158 158
0.168123 0.734236 0.11462 137 137 137
0.169736 0.734236 0.11462 143 143 143
0.174673 0.711645 0.111094 101 101 101
0.170329 0.680249 0.106193 94 94 94
0.171823 0.68025 0.106193 75 75 75
-0.159198 0.651506 0.0988202 139 139 139
-0.133097 0.616759 0.0935498 25 25 25
-0.131742 0.616759 0.0935499 24 24 24
-0.129006 0.608643 0.0923189 10 10 10
-0.0579127 0.616759 0.0935498 209 209 209
-0.0565581 0.616759 0.0935498 193 193 193
-0.0508008 0.642457 0.0974478 86 86 86
-0.0493896 0.642457 0.0974477 104 104 104
-0.0479785 0.642457 0.0974477 169 169 169
0.170872 0.700863 0.106307 107 107 107
0.170217 0.690403 0.10472 94 94 94
0.169582 0.680249 0.10318 94 94 94
0.171076 0.68025 0.10318 89 89 89
0.17257 0.680249 0.10318 58 58 58
-0.153417 0.616758 0.0915012 154 154 154
-0.15734 0.642458 0.0953139 144 144 144
-0.157767 0.651505 0.0966562 148 148 148
-0.156336 0.651506 0.0966564 174 174 174
-0.133097 0.616759 0.0915013 22 22 22
-0.131742 0.616759 0.0915014 25 25 25
0.167185 0.690403 0.102427 119 119 119
0.169459 0.690403 0.102427 98 98 98
0.168088 0.68025 0.100921 92 92 92
0.169582 0.680249 0.100921 94 94 94
0.17257 0.680249 0.100921 61 61 61
-0.158579 0.625093 0.0920457 174 174 174
-0.155449 0.616759 0.0908184 175 175 175
-0.155833 0.625093 0.0920456 151 151 151
-0.156634 0.642457 0.0946025 142 142 142
-0.155223 0.642456 0.0946023 154 154 154
-0.137298 0.625093 0.0920457 0 0 0
-0.135238 0.625093 0.0920456 38 38 38
-0.132419 0.616758 0.0908183 12 12 12
-0.131065 0.616758 0.0908184 21 21 21
-0.12971 0.616759 0.0908184 19 19 19
-0.0515063 0.642457 0.0946025 76 76 76
-0.0500951 0.642457 0.0946025 98 98 98
-0.048684 0.642457 0.0946025 136 136 136
0.169333 0.700864 0.103203 125 125 125
0.167943 0.690402 0.101662 112 112 112
0.169459 0.690403 0.101663 105 105 105
0.168088 0.68025 0.100168 107 107 107
0.169582 0.680249 0.100167 102 102 102
0.171076 0.68025 0.100168 95 95 95
0.17257 0.680249 0.100167 57 57 57
-0.156804 0.616759 0.0901357 176 176 176
-0.155449 0.616759 0.0901356 178 178 178
-0.155147 0.625093 0.0913537 152 152 152
-0.158483 0.651506 0.0952138 142 142 142
-0.157051 0.651505 0.0952136 151 151 151
-0.137298 0.625093 0.0913536 2 2 2
-0.135238 0.625093 0.0913536 33 33 33
-0.13112 0.625093 0.0913537 7 7 7
-0.0515063 0.642457 0.0938913 80 80 80
-0.0500951 0.642457 0.0938913 92 92 92
-0.048684 0.642457 0.0938912 150 150 150
0.166426 0.690403 0.100898 118 118 118
0.165099 0.68025 0.0994145 109 109 109
0.166593 0.68025 0.0994144 97 97 97
0.171076 0.68025 0.0994145 89 89 89
0.17257 0.680249 0.0994143 48 48 48
0.174064 0.680249 0.0994144 35 35 35
-0.155449 0.616759 0.0887699 182 182 182
-0.15762 0.633656 0.0912019 159 159 159
-0.15734 0.642458 0.0924687 149 149 149
-0.155929 0.642458 0.0924687 141 141 141
-0.155621 0.651506 0.0937711 166 166 166
-0.137298 0.625093 0.0899694 0 0 0
-0.135925 0.625094 0.0899695 24 24 24
-0.133097 0.616759 0.0887699 21 21 21
-0.131065 0.616758 0.0887698 12 12 12
0.168088 0.68025 0.0979082 95 95 95
0.166756 0.670391 0.0964892 100 100 100
0.171076 0.68025 0.0979081 89 89 89
0.17257 0.680249 0.097908 57 57 57
-0.158579 0.625093 0.0892774 177 177 177
-0.160162 0.642458 0.0917575 172 172 172
-0.160629 0.651505 0.0930496 154 154 154
-0.159198 0.651506 0.0930497 145 145 145
-0.157767 0.651505 0.0930497 146 146 146
-0.157481 0.660813 0.094379 160 160 160
-0.141417 0.625093 0.0892774 140 140 140
-0.140044 0.625093 0.0892775 92 92 92
-0.138671 0.625094 0.0892775 38 38 38
-0.137298 0.625093 0.0892774 2 2 2
-0.135925 0.625094 0.0892775 18 18 18
-0.133097 0.616759 0.088087 32 32 32
-0.130343 0.608644 0.086928 9 9 9
-0.0508008 0.642457 0.0917574 82 82 82
-0.0493896 0.642457 0.0917574 113 113 113
0.173037 0.722765 0.103227 127 127 127
0.174624 0.722764 0.103227 122 122 122
0.176212 0.722765 0.103227 102 102 102
0.16602 0.670391 0.0957469 106 106 106
0.167492 0.67039 0.0957468 97 97 97
0.168965 0.670391 0.0957469 83 83 83
0.170437 0.67039 0.0957468 47 47 47
0.171909 0.67039 0.0957468 37 37 37
-0.14073 0.625093 0.0830488 105 105 105
-0.139357 0.625093 0.0830488 68 68 68
-0.0525405 0.633657 0.0841866 65 65 65
0.169582 0.680249 0.0903768 94 94 94
-0.0572354 0.616759 0.0805758 177 177 177
-0.0522119 0.642457 0.0839332 73 73 73
-0.0592673 0.616758 0.079893 201 201 201
-0.0579127 0.616759 0.079893 190 190 190
-0.0565581 0.616759 0.079893 162 162 162
-0.0552034 0.616759 0.0798931 75 75 75
-0.0538488 0.61676 0.0798931 63 63 63
-0.053623 0.642457 0.0832219 67 67 67
-0.0515063 0.642457 0.0832219 78 78 78
-0.0500951 0.642457 0.0832219 100 100 100
0.166756 0.670391 0.0868403 109 109 109
0.168229 0.670392 0.0868404 101 101 101
-0.0572354 0.616759 0.0778444 168 168 168
-0.0558807 0.616758 0.0778444 118 118 118
-0.0515063 0.642457 0.081088 78 78 78
-0.0572354 0.616759 0.0771616 168 168 168
-0.0529174 0.642457 0.0803767 68 68 68
-0.0515063 0.642457 0.0803767 78 78 78
-0.0917793 0.616758 0.0737474 37 37 37
-0.0895691 0.608643 0.072777 63 63 63
-0.086227 0.608643 0.072777 108 108 108
-0.0848901 0.608643 0.072777 60 60 60
-0.0835533 0.608643 0.072777 31 31 31
-0.0822165 0.608643 0.0727771 29 29 29
-0.0816193 0.616759 0.0737474 15 15 15
-0.0592673 0.616758 0.0737474 192 192 192
0.0734157 0.633656 0.0757679 73 73 73
-0.0931341 0.616759 0.0723818 26 26 26
-0.0917793 0.616758 0.0723818 34 34 34
-0.0904247 0.616758 0.0723818 73 73 73
-0.0882322 0.608643 0.0714293 88 88 88
-0.0868955 0.608644 0.0714294 112 112 112
-0.0835533 0.608643 0.0714294 47 47 47
-0.0822165 0.608643 0.0714294 36 36 36
-0.0808796 0.608643 0.0714293 23 23 23
-0.0599448 0.616759 0.0723818 199 199 199
-0.05859 0.616758 0.0723818 177 177 177
-0.0572354 0.616759 0.0723818 153 153 153
0.0713281 0.633657 0.0743649 144 144 144
0.0727199 0.633657 0.0743649 77 77 77
0.0741116 0.633656 0.0743649 89 89 89
0.0768951 0.633656 0.0743648 97 97 97
0.168965 0.670391 0.0786759 99 99 99
-0.158751 0.642457 0.0746864 140 140 140
-0.159198 0.651506 0.0757383 142 142 142
-0.0944887 0.616759 0.0716989 9 9 9
-0.0931341 0.616759 0.0716989 25 25 25
-0.0909059 0.608643 0.0707555 41 41 41
-0.0904247 0.616758 0.0716989 67 67 67
-0.0882322 0.608643 0.0707554 88 88 88
-0.0868955 0.608644 0.0707555 115 115 115
-0.0842218 0.608644 0.0707555 47 47 47
-0.0828849 0.608643 0.0707555 35 35 35
-0.0788058 0.593037 0.0689413 26 26 26
-0.0775033 0.593038 0.0689413 19 19 19
-0.0612994 0.616759 0.071699 212 212 212
-0.0599448 0.616759 0.0716989 197 197 197
-0.05859 0.616758 0.0716989 178 178 178
-0.0572354 0.616759 0.0716989 156 156 156
-0.0529174 0.642457 0.0746864 77 77 77
-0.0515063 0.642457 0.0746864 88 88 88
0.0713281 0.633657 0.0736633 139 139 139
0.0727199 0.633657 0.0736633 78 78 78
0.0741116 0.633656 0.0736633 94 94 94
0.0755034 0.633656 0.0736632 116 116 116
0.124853 0.651506 0.0757383 24 24 24
0.169736 0.734236 0.0853558 130 130 130
0.172155 0.734238 0.085356 125 125 125
0.168965 0.670391 0.0779337 101 101 101
-0.15762 0.633656 0.0715586 153 153 153
-0.158045 0.642456 0.0725524 140 140 140
-0.0929112 0.608643 0.0687339 21 21 21
-0.0915744 0.608643 0.0687339 40 40 40
-0.0902375 0.608643 0.0687339 52 52 52
-0.0889007 0.608643 0.0687339 73 73 73
-0.0860968 0.600739 0.0678413 100 100 100
-0.0855586 0.608643 0.0687339 84 84 84
-0.0842218 0.608644 0.068734 44 44 44
-0.0619766 0.616758 0.0696503 216 216 216
-0.0599448 0.616759 0.0696504 198 198 198
-0.05859 0.616758 0.0696504 174 174 174
-0.0572354 0.616759 0.0696504 144 144 144
-0.054526 0.616759 0.0696504 60 60 60
-0.0543285 0.642457 0.0725525 66 66 66
-0.0522119 0.642457 0.0725525 75 75 75
-0.0508008 0.642457 0.0725525 104 104 104
0.0748075 0.633656 0.0715586 111 111 111
0.0790215 0.642457 0.0725525 73 73 73
0.0811382 0.642457 0.0725525 70 70 70
0.117827 0.642458 0.0725526 46 46 46
0.119238 0.642458 0.0725526 40 40 40
0.169736 0.734236 0.0829171 120 120 120
0.172961 0.734237 0.0829172 116 116 116
-0.155449 0.616759 0.0689676 181 181 181
-0.152739 0.616759 0.0689676 142 142 142
-0.154141 0.633656 0.0708571 139 139 139
-0.152053 0.633657 0.0708572 149 149 149
-0.148282 0.625093 0.0698996 166 166 166
-0.146909 0.625093 0.0698995 202 202 202
-0.0958434 0.616759 0.0689676 14 14 14
-0.0944887 0.616759 0.0689676 22 22 22
-0.0931341 0.616759 0.0689676 32 32 32
-0.0909059 0.608643 0.0680601 52 52 52
-0.0904247 0.616758 0.0689676 68 68 68
-0.0882322 0.608643 0.06806 84 84 84
-0.0860968 0.600739 0.0671762 105 105 105
-0.0834578 0.600739 0.0671762 46 46 46
-0.0808188 0.600739 0.0671762 30 30 30
-0.062654 0.616758 0.0689676 223 223 223
-0.0612994 0.616759 0.0689677 209 209 209
-0.0599448 0.616759 0.0689676 196 196 196
-0.0579127 0.616759 0.0689676 165 165 165
-0.0565581 0.616759 0.0689676 118 118 118
-0.054526 0.616759 0.0689676 56 56 56
-0.0543285 0.642457 0.0718412 70 70 70
-0.0522119 0.642457 0.0718413 77 77 77
-0.0508008 0.642457 0.0718413 105 105 105
-0.0493896 0.642457 0.0718412 182 182 182
0.078316 0.642457 0.0718413 94 94 94
0.079727 0.642457 0.0718412 71 71 71
0.0890887 0.690401 0.0772025 63 63 63
0.0888993 0.680249 0.0760673 64 64 64
0.119238 0.642458 0.0718414 38 38 38
0.120649 0.642458 0.0718413 27 27 27
0.12206 0.642457 0.0718413 13 13 13
0.126284 0.651506 0.0728532 9 9 9
0.162168 0.711645 0.079578 128 128 128
0.166687 0.722764 0.0808214 126 126 126
0.166076 0.711645 0.0795781 119 119 119
0.172328 0.711645 0.0795781 106 106 106
0.170217 0.690403 0.0772026 95 95 95
0.170437 0.67039 0.0749647 48 48 48
-0.155833 0.625093 0.0685154 156 156 156
-0.156634 0.642457 0.0704186 139 139 139
-0.153445 0.633656 0.069454 135 135 135
-0.148968 0.625093 0.0685154 161 161 161
-0.0938112 0.616758 0.0676018 20 20 20
-0.0909059 0.608643 0.0667123 37 37 37
-0.0895691 0.608643 0.0667124 60 60 60
-0.0882322 0.608643 0.0667123 84 84 84
-0.0868955 0.608644 0.0667124 103 103 103
-0.0821383 0.600739 0.065846 43 43 43
-0.062654 0.616758 0.0676019 217 217 217
-0.0612994 0.616759 0.067602 205 205 205
-0.0599448 0.616759 0.0676019 193 193 193
-0.05859 0.616758 0.0676019 170 170 170
-0.0572354 0.616759 0.0676019 148 148 148
-0.054736 0.651506 0.0714105 74 74 74
-0.0529174 0.642457 0.0704187 79 79 79
-0.0515063 0.642457 0.0704186 91 91 91
-0.0500951 0.642457 0.0704186 151 151 151
0.117257 0.633657 0.0694541 40 40 40
0.12004 0.633656 0.069454 28 28 28
0.121432 0.633657 0.069454 19 19 19
0.166687 0.722764 0.079221 129 129 129
0.171348 0.734236 0.0804784 124 124 124
0.168965 0.670391 0.0734804 84 84 84
-0.156126 0.616758 0.0662361 189 189 189
-0.158316 0.633657 0.0680509 165 165 165
-0.155147 0.625093 0.0671313 151 151 151
-0.154836 0.633656 0.0680509 138 138 138
-0.153445 0.633656 0.0680509 138 138 138
-0.150341 0.625093 0.0671312 154 154 154
-0.148968 0.625093 0.0671313 156 156 156
-0.147595 0.625093 0.0671313 174 174 174
-0.144612 0.616759 0.0662362 216 216 216
-0.124969 0.616759 0.0662362 10 10 10
-0.095166 0.616758 0.0662361 21 21 21
-0.0924567 0.616758 0.0662362 35 35 35
-0.091102 0.616758 0.0662361 52 52 52
-0.0889007 0.608643 0.0653647 73 73 73
-0.0875638 0.608643 0.0653646 96 96 96
-0.086227 0.608643 0.0653647 91 91 91
-0.0841175 0.600738 0.0645157 61 61 61
-0.0821383 0.600739 0.0645157 37 37 37
-0.0808188 0.600739 0.0645158 20 20 20
-0.080942 0.616758 0.0662361 19 19 19
-0.0645305 0.625093 0.0671313 229 229 229
-0.0606221 0.616759 0.0662362 200 200 200
-0.0592673 0.616758 0.0662362 180 180 180
-0.0572354 0.616759 0.0662362 149 149 149
-0.054526 0.616759 0.0662362 63 63 63
-0.0522119 0.642457 0.0689961 85 85 85
-0.0508008 0.642457 0.0689961 114 114 114
0.0748075 0.633656 0.0680509 106 106 106
0.0790215 0.642457 0.068996 81 81 81
0.0857702 0.67039 0.0719959 62 62 62
0.115005 0.642458 0.0689961 51 51 51
0.116416 0.642458 0.0689961 47 47 47
0.117827 0.642458 0.0689961 33 33 33
0.122706 0.651506 0.0699679 27 27 27
0.124853 0.651506 0.0699678 15 15 15
0.128451 0.660813 0.0709674 7 7 7
0.16893 0.734238 0.0788528 136 136 136
0.170542 0.734237 0.0788526 121 121 121
0.172155 0.734238 0.0788528 117 117 117
0.170656 0.722766 0.0776207 126 126 126
0.167793 0.700864 0.0752686 114 114 114
0.169333 0.700864 0.0752686 109 109 109
0.170872 0.700863 0.0752685 101 101 101
0.170217 0.690403 0.0741451 82 82 82
0.168229 0.670392 0.071996 75 75 75
0.17257 0.680249 0.0730546 59 59 59
0.171173 0.670391 0.071996 36 36 36
-0.155449 0.616759 0.0655533 181 181 181
-0.155833 0.625093 0.0664391 152 152 152
-0.150341 0.625093 0.0664391 148 148 148
-0.148968 0.625093 0.0664392 156 156 156
-0.147595 0.625093 0.0664392 170 170 170
-0.144612 0.616759 0.0655534 207 207 207
-0.13988 0.651505 0.0692464 11 11 11
-0.131872 0.633655 0.0673492 34 34 34
-0.124995 0.608643 0.0646907 25 25 25
-0.122382 0.600739 0.0638506 9 9 9
-0.123614 0.616759 0.0655534 5 5 5
-0.0922428 0.608643 0.0646907 31 31 31
-0.0909059 0.608643 0.0646907 40 40 40
-0.0889007 0.608643 0.0646908 73 73 73
-0.085437 0.600739 0.0638506 98 98 98
-0.0848901 0.608643 0.0646907 55 55 55
-0.0827981 0.600739 0.0638507 40 40 40
-0.0808188 0.600739 0.0638506 38 38 38
-0.0794994 0.600739 0.0638506 13 13 13
-0.0781799 0.600739 0.0638506 14 14 14
-0.0640088 0.616759 0.0655534 227 227 227
-0.062654 0.616758 0.0655533 214 214 214
-0.0612994 0.616759 0.0655534 203 203 203
-0.0599448 0.616759 0.0655533 188 188 188
-0.05859 0.616758 0.0655533 164 164 164
-0.0572354 0.616759 0.0655533 138 138 138
-0.0558807 0.616758 0.0655533 73 73 73
-0.054526 0.616759 0.0655533 56 56 56
-0.0543285 0.642457 0.0682847 66 66 66
-0.0529174 0.642457 0.0682847 74 74 74
-0.0515063 0.642457 0.0682847 88 88 88
-0.0500951 0.642457 0.0682847 160 160 160
0.0755034 0.633656 0.0673493 92 92 92
0.0790215 0.642457 0.0682847 72 72 72
0.119016 0.660814 0.0702358 45 45 45
0.120468 0.660814 0.0702358 35 35 35
0.126999 0.670391 0.0712537 28 28 28
0.13068 0.67039 0.0712536 0 0 0
0.169068 0.722765 0.0768204 123 123 123
0.16491 0.690402 0.0733806 106 106 106
0.166426 0.690403 0.0733807 98 98 98
0.177006 0.722766 0.0768205 100 100 100
0.167492 0.67039 0.0712536 79 79 79
0.168965 0.670391 0.0712537 74 74 74
0.170437 0.67039 0.0712536 36 36 36
-0.155449 0.616759 0.0641877 184 184 184
-0.15446 0.625093 0.065055 151 151 151
-0.153087 0.625093 0.065055 139 139 139
-0.150341 0.625093 0.065055 147 147 147
-0.148968 0.625093 0.0650551 153 153 153
-0.147595 0.625093 0.0650551 163 163 163
-0.144612 0.616759 0.0641877 191 191 191
-0.124995 0.608643 0.0633431 35 35 35
-0.123659 0.608643 0.0633431 27 27 27
-0.120403 0.600739 0.0625205 13 13 13
-0.0967952 0.625093 0.065055 20 20 20
-0.0954223 0.625093 0.065055 28 28 28
-0.0931341 0.616759 0.0641877 30 30 30
-0.0917793 0.616758 0.0641877 47 47 47
-0.0904247 0.616758 0.0641877 67 67 67
-0.0882322 0.608643 0.063343 78 78 78
-0.085437 0.600739 0.0625204 104 104 104
-0.0848901 0.608643 0.063343 61 61 61
-0.0808188 0.600739 0.0625205 36 36 36
-0.0794994 0.600739 0.0625205 21 21 21
-0.0619766 0.616758 0.0641876 208 208 208
-0.0606221 0.616759 0.0641877 194 194 194
-0.0592673 0.616758 0.0641877 177 177 177
-0.0579127 0.616759 0.0641877 152 152 152
-0.0565581 0.616759 0.0641877 103 103 103
-0.0529174 0.642457 0.0668622 76 76 76
-0.0515063 0.642457 0.0668622 96 96 96
-0.0500951 0.642457 0.0668622 166 166 166
0.0741116 0.633656 0.0659463 103 103 103
0.078316 0.642457 0.0668622 76 76 76
0.115865 0.633657 0.0659463 41 41 41
0.120649 0.642458 0.0668622 28 28 28
0.12206 0.642457 0.0668622 15 15 15
0.169736 0.734236 0.0764139 127 127 127
0.172243 0.722765 0.07522 110 110 110
0.168563 0.700862 0.0729406 108 108 108
0.170872 0.700863 0.0729406 92 92 92
0.168229 0.670392 0.0697694 80 80 80
0.170437 0.67039 0.0697692 51 51 51
-0.155449 0.616759 0.0635048 186 186 186
-0.155223 0.642456 0.0661507 137 137 137
-0.149269 0.633657 0.0652447 167 167 167
-0.122322 0.608643 0.0626692 11 11 11
-0.0944887 0.616759 0.0635049 28 28 28
-0.0909059 0.608643 0.0626692 45 45 45
-0.0904247 0.616758 0.0635048 67 67 67
-0.0882322 0.608643 0.0626692 88 88 88
-0.0868955 0.608644 0.0626693 105 105 105
-0.0855586 0.608643 0.0626692 85 85 85
-0.0842218 0.608644 0.0626693 49 49 49
-0.0808188 0.600739 0.0618553 37 37 37
-0.0802113 0.608644 0.0626693 19 19 19
-0.0781799 0.600739 0.0618553 29 29 29
-0.0768604 0.600739 0.0618553 28 28 28
-0.063844 0.625094 0.064363 220 220 220
-0.0624709 0.625093 0.064363 206 206 206
-0.061098 0.625093 0.064363 191 191 191
-0.0592673 0.616758 0.0635048 174 174 174
-0.0579127 0.616759 0.0635048 154 154 154
-0.0565581 0.616759 0.0635048 92 92 92
-0.054526 0.616759 0.0635048 63 63 63
-0.0522119 0.642457 0.0661509 84 84 84
0.0713281 0.633657 0.0652447 79 79 79
0.0755034 0.633656 0.0652447 99 99 99
0.0790215 0.642457 0.0661509 73 73 73
0.119345 0.633657 0.0652447 22 22 22
0.165294 0.711644 0.0732748 123 123 123
0.165668 0.690402 0.0710876 112 112 112
0.167943 0.690402 0.0710875 102 102 102
0.171823 0.68025 0.0700422 65 65 65
-0.157206 0.625093 0.0636709 186 186 186
-0.153445 0.633656 0.0645431 134 134 134
-0.149965 0.633656 0.0645431 160 160 160
-0.146909 0.625093 0.0636709 176 176 176
-0.140789 0.660813 0.0673093 20 20 20
-0.124969 0.616759 0.062822 24 24 24
-0.123614 0.616759 0.062822 17 17 17
-0.0938112 0.616758 0.0628219 35 35 35
-0.0909059 0.608643 0.0619953 45 45 45
-0.0895691 0.608643 0.0619954 58 58 58
-0.0882322 0.608643 0.0619953 84 84 84
-0.086227 0.608643 0.0619954 99 99 99
-0.0841175 0.600738 0.0611902 66 66 66
-0.079457 0.593037 0.0604057 26 26 26
-0.0781546 0.593037 0.0604058 17 17 17
-0.0624709 0.625093 0.0636709 208 208 208
-0.061098 0.625093 0.063671 187 187 187
-0.0592673 0.616758 0.062822 170 170 170
-0.0579127 0.616759 0.062822 152 152 152
-0.0565581 0.616759 0.062822 95 95 95
-0.0552034 0.616759 0.0628221 60 60 60
-0.0522119 0.642457 0.0654396 80 80 80
-0.0508008 0.642457 0.0654396 124 124 124
0.0734157 0.633656 0.0645431 86 86 86
0.0748075 0.633656 0.0645431 100 100 100
0.171348 0.734236 0.0747881 116 116 116
0.165668 0.690402 0.0703232 110 110 110
0.167185 0.690403 0.0703233 100 100 100
0.168701 0.690401 0.0703231 95 95 95
-0.152053 0.633657 0.0624386 154 154 154
-0.148968 0.625093 0.0615948 155 155 155
-0.0931341 0.616759 0.0607735 39 39 39
-0.0917793 0.616758 0.0607735 57 57 57
-0.0904247 0.616758 0.0607735 66 66 66
-0.0882322 0.608643 0.0599737 81 81 81
-0.0868955 0.608644 0.0599739 110 110 110
-0.0847773 0.600739 0.059195 96 96 96
-0.0842218 0.608644 0.0599739 57 57 57
-0.0821383 0.600739 0.0591949 41 41 41
-0.0808796 0.608643 0.0599738 30 30 30
-0.0619766 0.616758 0.0607734 207 207 207
-0.0606221 0.616759 0.0607735 185 185 185
-0.0592673 0.616758 0.0607735 164 164 164
-0.0579127 0.616759 0.0607735 143 143 143
-0.0565581 0.616759 0.0607735 88 88 88
-0.0552034 0.616759 0.0607735 61 61 61
-0.0554515 0.651506 0.0641974 69 69 69
-0.053623 0.642457 0.0633058 72 72 72
-0.0522119 0.642457 0.0633058 84 84 84
0.165668 0.690402 0.0680301 107 107 107
0.167185 0.690403 0.0680301 108 108 108
0.171641 0.700862 0.0690607 92 92 92
-0.0944887 0.616759 0.0580421 26 26 26
-0.0924567 0.616758 0.0580421 37 37 37
-0.0902375 0.608643 0.0572784 58 58 58
-0.0889007 0.608643 0.0572784 85 85 85
-0.0875638 0.608643 0.0572784 101 101 101
-0.086227 0.608643 0.0572784 109 109 109
-0.0841175 0.600738 0.0565345 67 67 67
-0.0827981 0.600739 0.0565346 41 41 41
-0.0624709 0.625093 0.0588265 202 202 202
-0.0606221 0.616759 0.0580421 182 182 182
-0.0592673 0.616758 0.0580421 157 157 157
-0.0579127 0.616759 0.0580421 143 143 143
-0.0565581 0.616759 0.0580421 86 86 86
-0.0538488 0.61676 0.0580422 75 75 75
0.170765 0.711646 0.0669718 112 112 112
0.170102 0.700863 0.065957 101 101 101
0.171641 0.700862 0.0659569 93 93 93
-0.086227 0.608643 0.0552568 112 112 112
-0.0944887 0.616759 0.0553107 40 40 40
-0.0931341 0.616759 0.0553107 36 36 36
-0.0909059 0.608643 0.0545829 51 51 51
-0.0895691 0.608643 0.0545829 69 69 69
-0.0882322 0.608643 0.0545829 87 87 87
-0.0868955 0.608644 0.054583 113 113 113
-0.0847773 0.600739 0.0538741 93 93 93
-0.0834578 0.600739 0.053874 45 45 45
-0.0631575 0.625093 0.0560581 199 199 199
-0.0599448 0.616759 0.0553107 160 160 160
-0.05859 0.616758 0.0553107 143 143 143
-0.0572354 0.616759 0.0553107 109 109 109
0.16491 0.690402 0.061915 113 113 113
0.166426 0.690403 0.0619151 110 110 110
0.167943 0.690402 0.061915 97 97 97
0.169459 0.690403 0.0619151 84 84 84
-0.174898 0.660812 0.056335 186 186 186
-0.173446 0.660812 0.056335 194 194 194
-0.15652 0.625093 0.0532899 160 160 160
-0.16111 0.660814 0.0563351 140 140 140
-0.149059 0.608644 0.0518876 150 150 150
-0.152749 0.633656 0.0540199 145 145 145
-0.148282 0.625093 0.0532899 169 169 169
-0.121063 0.600739 0.0512137 11 11 11
-0.0944887 0.616759 0.0525794 25 25 25
-0.0931341 0.616759 0.0525794 37 37 37
-0.0917793 0.616758 0.0525794 44 44 44
-0.0904247 0.616758 0.0525794 65 65 65
-0.0882322 0.608643 0.0518875 86 86 86
-0.086227 0.608643 0.0518875 108 108 108
-0.0841175 0.600738 0.0512136 69 69 69
-0.0821383 0.600739 0.0512137 49 49 49
-0.0815481 0.608643 0.0518876 35 35 35
-0.0802113 0.608644 0.0518876 19 19 19
-0.0788744 0.608644 0.0518876 26 26 26
-0.0653634 0.616759 0.0525794 225 225 225
-0.0633314 0.616759 0.0525794 210 210 210
-0.0614954 0.608643 0.0518875 193 193 193
-0.0606221 0.616759 0.0525794 174 174 174
-0.0592673 0.616758 0.0525794 156 156 156
-0.0579127 0.616759 0.0525794 131 131 131
-0.0543285 0.642457 0.0547702 76 76 76
-0.0529174 0.642457 0.0547702 88 88 88
-0.0515063 0.642457 0.0547702 125 125 125
0.0671526 0.633656 0.0540199 172 172 172
0.0685445 0.633656 0.0540199 163 163 163
0.0699362 0.633656 0.0540199 77 77 77
0.0713281 0.633657 0.05402 44 44 44
0.0727199 0.633657 0.05402 51 51 51
0.0811382 0.642457 0.0547702 42 42 42
0.0810706 0.633657 0.05402 49 49 49
0.0839603 0.642457 0.0547702 63 63 63
0.124096 0.660814 0.0563351 12 12 12
0.126999 0.660813 0.0563351 9 9 9
0.129902 0.660814 0.0563351 0 0 0
0.169333 0.700864 0.0597495 105 105 105
0.170872 0.700863 0.0597494 86 86 86
0.170217 0.690403 0.0588576 81 81 81
-0.174223 0.651506 0.0548204 169 169 169
-0.172792 0.651505 0.0548202 180 180 180
-0.169334 0.642456 0.0540589 190 190 190
-0.165275 0.633656 0.0533184 204 204 204
-0.157893 0.625093 0.0525979 193 193 193
-0.15652 0.625093 0.0525979 159 159 159
-0.153774 0.625094 0.0525979 138 138 138
-0.150707 0.616759 0.0518966 148 148 148
-0.152749 0.633656 0.0533184 154 154 154
-0.148968 0.625093 0.0525979 157 157 157
-0.120403 0.600739 0.0505486 12 12 12
-0.118424 0.600739 0.0505486 10 10 10
-0.0967952 0.625093 0.0525978 29 29 29
-0.0931341 0.616759 0.0518966 37 37 37
-0.0909059 0.608643 0.0512137 48 48 48
-0.0882322 0.608643 0.0512136 79 79 79
-0.0868955 0.608644 0.0512137 110 110 110
-0.0855586 0.608643 0.0512137 75 75 75
-0.0842218 0.608644 0.0512137 47 47 47
-0.0828849 0.608643 0.0512137 47 47 47
-0.0795428 0.608643 0.0512137 17 17 17
-0.0782327 0.616759 0.0518966 22 22 22
-0.0653634 0.616759 0.0518966 224 224 224
-0.0640088 0.616759 0.0518966 212 212 212
-0.0631575 0.625093 0.0525979 196 196 196
-0.0617845 0.625094 0.0525979 181 181 181
-0.0599448 0.616759 0.0518966 159 159 159
-0.05859 0.616758 0.0518966 130 130 130
-0.0572354 0.616759 0.0518966 98 98 98
-0.0552034 0.616759 0.0518966 55 55 55
-0.0543285 0.642457 0.0540589 65 65 65
-0.0529174 0.642457 0.0540589 84 84 84
0.0671526 0.633656 0.0533184 175 175 175
0.0685445 0.633656 0.0533184 158 158 158
0.0699362 0.633656 0.0533184 67 67 67
0.072024 0.633657 0.0533185 43 43 43
0.0796787 0.633656 0.0533184 25 25 25
0.0810706 0.633657 0.0533185 42 42 42
0.0824623 0.633656 0.0533184 57 57 57
0.129902 0.660814 0.0556036 13 13 13
0.167793 0.700864 0.0589735 106 106 106
0.169333 0.700864 0.0589735 99 99 99
0.172412 0.700864 0.0589736 80 80 80
0.172492 0.690403 0.0580933 65 65 65
-0.174898 0.660812 0.0548718 183 183 183
-0.171361 0.651505 0.054099 194 194 194
-0.155147 0.625093 0.0519058 133 133 133
-0.150341 0.625093 0.0519058 153 153 153
-0.148968 0.625093 0.0519058 161 161 161
-0.147595 0.625093 0.0519058 175 175 175
-0.144612 0.616759 0.0512138 221 221 221
-0.116069 0.585531 0.0486207 11 11 11
-0.0924567 0.616758 0.0512137 38 38 38
-0.0902375 0.608643 0.0505398 50 50 50
-0.0889007 0.608643 0.0505399 79 79 79
-0.0875638 0.608643 0.0505398 109 109 109
-0.086227 0.608643 0.0505399 110 110 110
-0.0835533 0.608643 0.0505398 49 49 49
-0.079457 0.593037 0.0492439 40 40 40
-0.0781546 0.593037 0.049244 25 25 25
-0.0653634 0.616759 0.0512137 223 223 223
-0.0640088 0.616759 0.0512138 213 213 213
-0.062654 0.616758 0.0512137 198 198 198
-0.0612994 0.616759 0.0512138 183 183 183
-0.0599448 0.616759 0.0512138 162 162 162
-0.05859 0.616758 0.0512137 134 134 134
-0.0572354 0.616759 0.0512137 94 94 94
-0.0543285 0.642457 0.0533476 71 71 71
-0.0529174 0.642457 0.0533476 89 89 89
0.0678485 0.633656 0.0526169 158 158 158
0.0692403 0.633656 0.0526168 111 111 111
0.0706322 0.633657 0.0526169 47 47 47
0.0817665 0.633657 0.0526169 43 43 43
0.0831581 0.633656 0.0526169 45 45 45
0.16491 0.690402 0.0573288 111 111 111
0.166426 0.690403 0.0573289 108 108 108
0.167943 0.690402 0.0573288 94 94 94
0.169459 0.690403 0.0573289 82 82 82
0.170976 0.690403 0.0573289 69 69 69
-0.174223 0.651506 0.0533777 168 168 168
-0.172077 0.651505 0.0533776 186 186 186
-0.170646 0.651505 0.0533776 198 198 198
-0.155833 0.625093 0.0512137 143 143 143
-0.153774 0.625094 0.0512138 147 147 147
-0.150341 0.625093 0.0512137 159 159 159
-0.147595 0.625093 0.0512137 169 169 169
-0.144612 0.616759 0.0505309 209 209 209
-0.143257 0.616759 0.0505309 238 238 238
-0.122322 0.608643 0.049866 9 9 9
-0.120985 0.608643 0.0498659 15 15 15
-0.119648 0.608643 0.049866 1 1 1
-0.0938112 0.616758 0.0505308 33 33 33
-0.0924567 0.616758 0.0505308 33 33 33
-0.091102 0.616758 0.0505308 66 66 66
-0.0889007 0.608643 0.049866 75 75 75
-0.0868955 0.608644 0.049866 101 101 101
-0.0842218 0.608644 0.049866 47 47 47
-0.0828849 0.608643 0.0498659 34 34 34
-0.0815481 0.608643 0.049866 25 25 25
-0.0653634 0.616759 0.0505309 222 222 222
-0.0640088 0.616759 0.0505309 211 211 211
-0.062654 0.616758 0.0505308 196 196 196
-0.0612994 0.616759 0.0505309 178 178 178
-0.0599448 0.616759 0.0505309 161 161 161
-0.05859 0.616758 0.0505308 139 139 139
-0.0572354 0.616759 0.0505308 85 85 85
-0.054526 0.616759 0.0505309 61 61 61
-0.0543285 0.642457 0.0526363 76 76 76
-0.0529174 0.642457 0.0526363 87 87 87
0.0684381 0.642456 0.0526363 156 156 156
0.077554 0.616759 0.0505309 18 18 18
0.0802634 0.61676 0.0505309 46 46 46
0.170872 0.700863 0.0574215 89 89 89
0.172412 0.700864 0.0574216 82 82 82
-0.175623 0.660812 0.0534085 176 176 176
-0.172077 0.651505 0.0526563 186 186 186
-0.170646 0.651505 0.0526563 197 197 197
-0.155147 0.625093 0.0505217 142 142 142
-0.154836 0.633656 0.0512138 138 138 138
-0.148676 0.616759 0.0498481 145 145 145
-0.147595 0.625093 0.0505217 162 162 162
-0.144612 0.616759 0.0498481 202 202 202
-0.143257 0.616759 0.049848 229 229 229
-0.119084 0.600739 0.0485533 7 7 7
-0.120227 0.616758 0.049848 2 2 2
-0.0922428 0.608643 0.0491921 34 34 34
-0.0909059 0.608643 0.0491921 51 51 51
-0.0889007 0.608643 0.0491922 73 73 73
-0.0875638 0.608643 0.0491921 97 97 97
-0.086227 0.608643 0.0491921 99 99 99
-0.0841175 0.600738 0.0485532 72 72 72
-0.0821383 0.600739 0.0485533 43 43 43
-0.0808188 0.600739 0.0485533 35 35 35
-0.0781546 0.593037 0.0479308 25 25 25
-0.0768519 0.593037 0.0479308 13 13 13
-0.0755494 0.593037 0.0479308 33 33 33
-0.0653634 0.616759 0.049848 221 221 221
-0.063844 0.625094 0.0505217 204 204 204
-0.0624709 0.625093 0.0505217 188 188 188
-0.0606221 0.616759 0.0498481 171 171 171
-0.0592673 0.616758 0.049848 149 149 149
-0.0579127 0.616759 0.049848 118 118 118
-0.0543285 0.642457 0.051925 73 73 73
-0.0529174 0.642457 0.0519251 83 83 83
-0.0515063 0.642457 0.0519251 134 134 134
0.0712604 0.642457 0.0519251 53 53 53
0.0713281 0.633657 0.0512138 31 31 31
0.0727199 0.633657 0.0512138 48 48 48
0.0741116 0.633656 0.0512137 39 39 39
0.0789087 0.616759 0.0498481 31 31 31
0.0802634 0.61676 0.0498481 44 44 44
0.0830642 0.625094 0.0505217 50 50 50
0.105228 0.660813 0.0534087 56 56 56
0.126284 0.651506 0.0526564 18 18 18
0.127715 0.651506 0.0526564 5 5 5
0.169333 0.700864 0.0566456 102 102 102
0.170872 0.700863 0.0566455 93 93 93
0.172412 0.700864 0.0566457 80 80 80
-0.173446 0.660812 0.052677 189 189 189
-0.16993 0.651505 0.0519351 203 203 203
-0.155449 0.616759 0.0491652 188 188 188
-0.155833 0.625093 0.0498296 144 144 144
-0.153774 0.625094 0.0498296 141 141 141
-0.151714 0.625092 0.0498295 144 144 144
-0.149655 0.625093 0.0498296 143 143 143
-0.147595 0.625093 0.0498296 163 163 163
-0.146222 0.625093 0.0498296 198 198 198
-0.144849 0.625093 0.0498296 212 212 212
-0.121063 0.600739 0.0478882 14 14 14
-0.117764 0.600738 0.0478881 0 0 0
-0.0974818 0.625094 0.0498296 21 21 21
-0.0954223 0.625093 0.0498296 24 24 24
-0.0931341 0.616759 0.0491652 34 34 34
-0.0909059 0.608643 0.0485183 51 51 51
-0.0889007 0.608643 0.0485183 71 71 71
-0.0868955 0.608644 0.0485183 108 108 108
-0.0842218 0.608644 0.0485183 47 47 47
-0.0828849 0.608643 0.0485183 35 35 35
-0.0788397 0.60074 0.0478882 23 23 23
-0.0653634 0.616759 0.0491652 221 221 221
-0.063844 0.625094 0.0498296 205 205 205
-0.0624709 0.625093 0.0498296 186 186 186
-0.0606221 0.616759 0.0491652 165 165 165
-0.0592673 0.616758 0.0491652 146 146 146
-0.0579127 0.616759 0.0491652 115 115 115
-0.0558807 0.616758 0.0491652 58 58 58
-0.0561669 0.651505 0.051935 69 69 69
-0.0543285 0.642457 0.0512137 81 81 81
-0.0529174 0.642457 0.0512138 85 85 85
-0.0515063 0.642457 0.0512138 138 138 138
0.0776933 0.680248 0.0542263 41 41 41
0.0761994 0.61676 0.0491653 13 13 13
0.077554 0.616759 0.0491652 25 25 25
0.0802634 0.61676 0.0491653 34 34 34
0.0816179 0.616759 0.0491652 54 54 54
0.0829727 0.616759 0.0491652 59 59 59
0.116692 0.670391 0.0534405 34 34 34
0.170102 0.700863 0.0558696 97 97 97
0.171641 0.700862 0.0558695 85 85 85
-0.155833 0.625093 0.0484454 143 143 143
-0.15446 0.625093 0.0484454 141 141 141
-0.154836 0.633656 0.0491091 137 137 137
-0.153445 0.633656 0.0491091 133 133 133
-0.148282 0.625093 0.0484454 149 149 149
-0.146909 0.625093 0.0484454 174 174 174
-0.0938112 0.616758 0.0477994 28 28 28
-0.0924567 0.616758 0.0477995 37 37 37
-0.091102 0.616758 0.0477995 56 56 56
-0.0897474 0.616758 0.0477995 76 76 76
-0.0875638 0.608643 0.0471705 103 103 103
-0.086227 0.608643 0.0471705 106 106 106
-0.0841175 0.600738 0.0465579 71 71 71
-0.0814786 0.600739 0.0465579 36 36 36
-0.0808796 0.608643 0.0471705 24 24 24
-0.0653634 0.616759 0.0477995 218 218 218
-0.0640088 0.616759 0.0477995 205 205 205
-0.062654 0.616758 0.0477995 195 195 195
-0.0612994 0.616759 0.0477995 175 175 175
-0.0599448 0.616759 0.0477995 155 155 155
-0.0572354 0.616759 0.0477995 76 76 76
-0.0558807 0.616758 0.0477995 50 50 50
-0.0543285 0.642457 0.0497911 73 73 73
-0.0529174 0.642457 0.0497912 88 88 88
-0.0515063 0.642457 0.0497911 142 142 142
0.0692403 0.633656 0.0491091 47 47 47
0.0706322 0.633657 0.0491091 40 40 40
0.0796318 0.625094 0.0484455 28 28 28
0.0809406 0.616758 0.0477995 43 43 43
0.0851236 0.625094 0.0484455 66 66 66
0.123208 0.690401 0.0535069 45 45 45
0.170872 0.700863 0.0543177 96 96 96
-0.173508 0.651505 0.0497711 172 172 172
-0.155833 0.625093 0.0477533 140 140 140
-0.156634 0.642457 0.0490798 130 130 130
-0.149655 0.625093 0.0477533 143 143 143
-0.147595 0.625093 0.0477533 155 155 155
-0.146222 0.625093 0.0477534 188 188 188
-0.0967952 0.625093 0.0477533 25 25 25
-0.0944887 0.616759 0.0471167 32 32 32
-0.0922428 0.608643 0.0464967 36 36 36
-0.0917793 0.616758 0.0471166 45 45 45
-0.0904247 0.616758 0.0471166 66 66 66
-0.0882322 0.608643 0.0464966 91 91 91
-0.086227 0.608643 0.0464967 104 104 104
-0.0841175 0.600738 0.0458928 68 68 68
-0.0835533 0.608643 0.0464967 36 36 36
-0.0808796 0.608643 0.0464966 31 31 31
-0.0646859 0.616758 0.0471166 212 212 212
-0.0633314 0.616759 0.0471167 201 201 201
-0.0619766 0.616758 0.0471166 180 180 180
-0.0606221 0.616759 0.0471167 165 165 165
-0.0592673 0.616758 0.0471166 145 145 145
-0.0579127 0.616759 0.0471166 106 106 106
-0.0561669 0.651505 0.0497711 65 65 65
-0.0543285 0.642457 0.0490798 78 78 78
-0.0529174 0.642457 0.0490798 84 84 84
-0.0515063 0.642457 0.0490798 147 147 147
-0.0493896 0.642457 0.0490798 184 184 184
0.0782313 0.616759 0.0471167 31 31 31
0.079586 0.616759 0.0471167 43 43 43
0.0809406 0.616758 0.0471166 50 50 50
0.0851236 0.625094 0.0477534 68 68 68
0.0878695 0.625093 0.0477533 110 110 110
0.0892426 0.625094 0.0477534 97 97 97
0.0906155 0.625093 0.0477534 77 77 77
0.172328 0.711645 0.0543654 102 102 102
-0.0938112 0.616758 0.0443852 31 31 31
-0.0915744 0.608643 0.0438013 45 45 45
-0.0902375 0.608643 0.0438013 55 55 55
-0.0889007 0.608643 0.0438013 76 76 76
-0.0875638 0.608643 0.0438012 99 99 99
-0.086227 0.608643 0.0438013 103 103 103
-0.0848901 0.608643 0.0438012 69 69 69
-0.0835533 0.608643 0.0438013 43 43 43
-0.0640088 0.616759 0.0443853 203 203 203
-0.062654 0.616758 0.0443853 187 187 187
-0.0612994 0.616759 0.0443853 168 168 168
-0.0599448 0.616759 0.0443853 152 152 152
-0.05859 0.616758 0.0443853 122 122 122
-0.053623 0.642457 0.0462347 72 72 72
-0.0508008 0.642457 0.0462347 184 184 184
0.0843273 0.616759 0.0443853 83 83 83
0.0856819 0.616759 0.0443853 105 105 105
0.0885561 0.625094 0.0449851 114 114 114
0.089929 0.625093 0.0449851 88 88 88
0.091302 0.625093 0.0449851 84 84 84
-0.0924567 0.616758 0.0423368 43 43 43
-0.0895691 0.608643 0.0417797 56 56 56
-0.0882322 0.608643 0.0417797 78 78 78
-0.086227 0.608643 0.0417797 113 113 113
-0.0841175 0.600738 0.0412371 79 79 79
-0.0659034 0.625093 0.0429089 212 212 212
-0.0633314 0.616759 0.0423368 193 193 193
-0.0619766 0.616758 0.0423367 178 178 178
-0.0606221 0.616759 0.0423368 149 149 149
-0.0592673 0.616758 0.0423368 129 129 129
-0.0579127 0.616759 0.0423368 89 89 89
-0.0515063 0.642457 0.0441008 163 163 163
0.0604584 0.651505 0.0447219 51 51 51
0.0782313 0.616759 0.0423368 30 30 30
0.079586 0.616759 0.0423368 33 33 33
0.0809406 0.616758 0.0423368 41 41 41
0.0822953 0.616759 0.0423368 61 61 61
0.0851236 0.625094 0.0429089 72 72 72
0.0864965 0.625093 0.0429089 98 98 98
0.0878695 0.625093 0.0429089 118 118 118
-0.174898 0.660812 0.0438976 174 174 174
-0.173446 0.660812 0.0438976 185 185 185
-0.156126 0.616758 0.0409711 182 182 182
-0.154771 0.616758 0.0409711 171 171 171
-0.0929112 0.608643 0.040432 25 25 25
-0.0917793 0.616758 0.0409711 41 41 41
-0.0897474 0.616758 0.0409711 69 69 69
-0.0875638 0.608643 0.040432 102 102 102
-0.086227 0.608643 0.040432 113 113 113
-0.0835533 0.608643 0.040432 50 50 50
-0.0822165 0.608643 0.040432 33 33 33
-0.0808796 0.608643 0.040432 17 17 17
-0.0660406 0.616758 0.0409711 218 218 218
-0.0646859 0.616758 0.0409711 204 204 204
-0.0633314 0.616759 0.0409711 189 189 189
-0.0619766 0.616758 0.0409711 170 170 170
-0.0606221 0.616759 0.0409711 150 150 150
-0.0592673 0.616758 0.0409711 128 128 128
-0.0579127 0.616759 0.0409711 82 82 82
-0.0550341 0.642457 0.0426783 64 64 64
-0.053623 0.642457 0.0426783 80 80 80
-0.0522119 0.642457 0.0426783 121 121 121
-0.0508008 0.642457 0.0426783 185 185 185
0.0575965 0.651506 0.0432794 177 177 177
0.0604584 0.651505 0.0432793 41 41 41
0.0789087 0.616759 0.0409712 29 29 29
0.0802634 0.61676 0.0409712 43 43 43
0.0816179 0.616759 0.0409711 55 55 55
0.0829727 0.616759 0.0409712 67 67 67
0.08581 0.625093 0.0415248 90 90 90
0.0885561 0.625094 0.0415248 106 106 106
0.089929 0.625093 0.0415248 86 86 86
0.091302 0.625093 0.0415248 72 72 72
-0.174898 0.660812 0.043166 172 172 172
-0.171361 0.651505 0.042558 184 184 184
-0.0944887 0.616759 0.0402883 21 21 21
-0.0924567 0.616758 0.0402883 37 37 37
-0.0902375 0.608643 0.0397582 57 57 57
-0.0889007 0.608643 0.0397582 69 69 69
-0.0875638 0.608643 0.0397582 101 101 101
-0.086227 0.608643 0.0397582 117 117 117
-0.0841175 0.600738 0.0392418 78 78 78
-0.0827981 0.600739 0.0392419 45 45 45
-0.0714594 0.616759 0.0402883 66 66 66
-0.0701047 0.616758 0.0402883 227 227 227
-0.0680727 0.616758 0.0402883 235 235 235
-0.066718 0.616758 0.0402883 223 223 223
-0.0653634 0.616759 0.0402883 211 211 211
-0.0633314 0.616759 0.0402883 190 190 190
-0.0619766 0.616758 0.0402883 172 172 172
-0.0606221 0.616759 0.0402883 152 152 152
-0.0592673 0.616758 0.0402883 129 129 129
-0.0579127 0.616759 0.0402883 90 90 90
-0.0565581 0.616759 0.0402883 55 55 55
-0.0543285 0.642457 0.041967 72 72 72
-0.0529174 0.642457 0.041967 102 102 102
-0.0515063 0.642457 0.041967 174 174 174
0.0590274 0.651506 0.0425581 114 114 114
0.0604584 0.651505 0.0425581 38 38 38
0.0618895 0.651506 0.0425581 8 8 8
0.0810047 0.625094 0.0408328 38 38 38
0.0823776 0.625093 0.0408327 50 50 50
0.0837507 0.625094 0.0408328 70 70 70
0.08581 0.625093 0.0408327 86 86 86
0.0871831 0.625094 0.0408328 114 114 114
0.0885561 0.625094 0.0408328 114 114 114
0.089929 0.625093 0.0408327 84 84 84
-0.171361 0.651505 0.0418367 184 184 184
-0.157206 0.625093 0.0401406 176 176 176
-0.155833 0.625093 0.0401406 150 150 150
-0.15446 0.625093 0.0401406 149 149 149
-0.122382 0.600739 0.0385767 22 22 22
-0.119744 0.600739 0.0385767 18 18 18
-0.0944887 0.616759 0.0396055 17 17 17
-0.0931341 0.616759 0.0396054 32 32 32
-0.0917793 0.616758 0.0396054 47 47 47
-0.0889007 0.608643 0.0390843 69 69 69
-0.0875638 0.608643 0.0390843 99 99 99
-0.086227 0.608643 0.0390843 118 118 118
-0.0827981 0.600739 0.0385767 47 47 47
-0.0814786 0.600739 0.0385767 39 39 39
-0.0788058 0.593037 0.0380822 22 22 22
-0.0734914 0.616758 0.0396054 9 9 9
-0.0721366 0.616758 0.0396054 36 36 36
-0.0707821 0.616759 0.0396055 171 171 171
-0.0694274 0.616759 0.0396055 247 247 247
-0.0653634 0.616759 0.0396054 210 210 210
-0.0640088 0.616759 0.0396055 195 195 195
-0.062654 0.616758 0.0396054 178 178 178
-0.0612994 0.616759 0.0396055 160 160 160
-0.0599448 0.616759 0.0396055 134 134 134
-0.05859 0.616758 0.0396054 111 111 111
-0.0572354 0.616759 0.0396054 60 60 60
-0.053623 0.642457 0.0412557 86 86 86
0.0590274 0.651506 0.0418367 108 108 108
0.0604584 0.651505 0.0418367 34 34 34
0.0618895 0.651506 0.0418368 0 0 0
0.0706322 0.633657 0.0406905 38 38 38
0.0782313 0.616759 0.0396054 33 33 33
0.0810047 0.625094 0.0401407 36 36 36
0.0823776 0.625093 0.0401406 51 51 51
0.0844372 0.625094 0.0401407 73 73 73
0.08581 0.625093 0.0401406 92 92 92
0.0871831 0.625094 0.0401407 108 108 108
0.0885561 0.625094 0.0401407 106 106 106
