ply
format ascii 1.0
element vertex 1329
property float x
property float y
property float z
property uchar red
property uchar green
property uchar blue
end_header
0.783491 2.99313 0.870307 84 38 0
-0.850621 2.59404 0.752016 46 42 45
0.209968 3.89104 1.12802 45 18 3
0.215049 3.89106 1.12802 83 44 0
0.704417 3.89103 1.12802 115 70 2
0.779583 2.99313 0.867714 150 82 21
0.783491 2.99313 0.867713 93 39 0
0.783491 2.99313 0.865119 94 38 0
-0.850621 2.59404 0.748644 53 44 48
0.213356 3.89107 1.12297 68 38 0
0.783491 2.99313 0.863822 92 37 0
-0.850621 2.59404 0.747519 55 45 52
-0.736601 2.99311 0.86252 45 43 49
0.784796 2.99315 0.862529 92 48 0
-0.851749 2.59404 0.746395 46 39 43
-0.847233 2.59404 0.746394 5 6 13
-0.71926 2.84713 0.819218 165 197 227
-0.737903 2.99311 0.861223 34 38 41
-0.733998 2.99312 0.861225 93 94 98
0.211661 3.89104 1.11959 45 29 0
0.216744 3.89109 1.1196 103 71 3
0.784796 2.99315 0.861231 95 52 0
0.788701 2.99313 0.861228 150 99 1
-0.850621 2.59404 0.744147 57 53 56
-0.847233 2.59404 0.744146 2 3 6
-0.736601 2.99311 0.858628 41 46 45
-0.732695 2.99312 0.85863 90 98 102
0.215049 3.89106 1.11622 67 50 0
0.784796 2.99315 0.858637 89 46 0
0.788701 2.99313 0.858634 146 96 0
-0.850621 2.59404 0.743023 55 52 50
-0.847233 2.59404 0.743022 6 6 7
-0.736601 2.99311 0.857331 47 48 48
-0.732695 2.99312 0.857333 99 101 104
0.213356 3.89107 1.11454 66 49 0
0.784796 2.99315 0.85734 85 41 0
-0.850621 2.59404 0.741899 52 52 51
-0.847233 2.59404 0.741898 6 6 5
-0.736601 2.99311 0.856035 48 48 48
-0.732695 2.99312 0.856036 97 98 98
0.213356 3.89107 1.11285 68 42 0
0.784796 2.99315 0.856044 88 43 0
0.788701 2.99313 0.85604 147 98 0
-0.850621 2.59404 0.739651 50 48 53
-0.850621 2.59404 0.738527 51 49 55
-0.847233 2.59404 0.738526 4 3 8
0.784796 2.99315 0.852153 88 38 0
-0.850621 2.59404 0.737402 51 51 54
-0.847233 2.59404 0.737401 6 5 9
0.784796 2.99315 0.850855 79 32 0
-0.850621 2.59404 0.73403 48 48 48
-0.847233 2.59404 0.734029 10 6 7
0.784796 2.99315 0.846964 95 42 0
0.708265 2.24484 0.635218 0 5 24
-0.736601 2.99311 0.841767 41 42 46
-0.736601 2.99311 0.837876 48 44 47
-0.736601 2.99311 0.836579 46 44 49
-0.756928 3.89108 1.08756 165 113 48
-0.751844 3.89106 1.08756 141 96 15
-0.736601 2.99311 0.832688 41 41 41
-0.736601 2.99311 0.831391 43 44 45
0.712888 3.89106 1.08081 60 13 0
-0.736601 2.99311 0.8275 42 38 39
-0.733998 2.99312 0.81972 110 105 113
0.78609 2.99311 0.819718 87 40 0
-0.736601 2.99311 0.815827 50 47 54
-0.736601 2.99311 0.81453 49 46 53
-0.736601 2.99311 0.811936 43 42 44
-0.732695 2.99312 0.811938 107 109 112
0.787395 2.99312 0.811938 91 50 0
-0.737903 2.99311 0.810639 35 32 39
-0.733998 2.99312 0.810641 111 104 107
-0.756928 3.89108 1.05384 170 119 60
-0.736601 2.99311 0.808045 41 34 38
-0.755237 3.89109 1.05047 171 123 62
-0.736601 2.99311 0.806748 50 40 45
-0.732695 2.99312 0.806749 116 114 121
-0.710554 2.99313 0.806753 34 41 47
-0.756928 3.89108 1.04878 161 113 42
-0.847233 2.59404 0.698059 6 4 9
-0.732695 2.99312 0.805452 108 105 112
-0.710554 2.99313 0.805456 29 37 42
-0.755237 3.89109 1.0471 171 124 49
-0.847233 2.59404 0.696935 4 3 6
-0.736601 2.99311 0.804154 57 45 51
-0.732695 2.99312 0.804155 105 102 108
-0.756928 3.89108 1.04541 166 125 38
-0.847233 2.59404 0.694687 3 4 7
-0.737903 2.99311 0.80156 39 29 32
-0.733998 2.99312 0.801562 118 111 117
-0.730089 2.99312 0.801562 9 20 24
-0.753537 3.89106 1.04203 164 108 44
-0.851749 2.59404 0.693563 45 38 31
-0.847233 2.59404 0.693563 6 8 11
-0.737903 2.99311 0.800263 33 29 28
-0.733998 2.99312 0.800265 119 115 119
-0.730089 2.99312 0.800265 16 25 29
-0.847233 2.59404 0.692438 7 7 8
-0.737903 2.99311 0.798966 39 36 32
-0.733998 2.99312 0.798967 114 110 112
-0.733998 2.99312 0.796373 116 114 113
-0.733998 2.99312 0.795077 113 110 109
-0.736601 2.99311 0.784698 48 48 49
-0.847233 2.59404 0.676701 8 6 4
-0.847233 2.59404 0.675577 8 8 5
-0.847233 2.59404 0.672205 1 6 5
-0.716778 2.84712 0.737786 151 155 135
-0.706645 2.99313 0.775623 209 197 218
0.203196 4.16901 1.08033 62 20 2
0.357288 3.89106 1.00831 112 59 8
-0.84836 2.59403 0.671079 2 11 13
-0.843847 2.59404 0.671081 37 37 34
-0.718017 2.84712 0.736552 160 172 185
-0.756928 3.89108 1.00663 166 125 49
0.357288 3.89106 1.00662 107 59 2
0.714579 3.89105 1.00662 75 28 0
0.719657 3.89104 1.00662 97 53 0
-0.847233 2.59404 0.668833 5 5 6
-0.705344 2.99313 0.771733 219 197 224
-0.701433 2.99312 0.77173 203 218 237
0.714579 3.89105 1.00325 70 24 0
0.719657 3.89104 1.00324 99 52 0
-0.851749 2.59404 0.667709 43 37 32
-0.847233 2.59404 0.667709 5 3 4
-0.725971 2.7147 0.698766 90 83 86
-0.710554 2.99313 0.770436 27 19 20
-0.706645 2.99313 0.770435 220 191 208
-0.702736 2.99312 0.770433 210 206 232
-0.756928 3.89108 1.00157 167 120 43
-0.751844 3.89106 1.00156 139 97 19
0.714579 3.89105 1.00156 84 32 0
0.719657 3.89104 1.00156 106 58 2
-0.851749 2.59404 0.666585 53 43 40
-0.847233 2.59404 0.666584 5 2 5
-0.725971 2.7147 0.69759 83 79 81
-0.722428 2.7147 0.697591 53 49 40
-0.705344 2.99313 0.769139 212 168 194
-0.756928 3.89108 0.999882 171 124 42
-0.751844 3.89106 0.999878 135 94 5
0.712888 3.89106 0.999878 109 45 0
0.717966 3.89105 0.999875 84 41 0
-0.850621 2.59404 0.665461 58 49 51
-0.847233 2.59404 0.66546 4 4 7
-0.706645 2.99313 0.767841 221 178 195
-0.756928 3.89108 0.998196 170 124 37
-0.751844 3.89106 0.998192 139 99 11
0.714579 3.89105 0.998188 91 34 0
0.719657 3.89104 0.998185 103 55 6
-0.751844 3.89106 0.993134 139 96 14
-0.733998 2.99312 0.753572 155 146 144
-0.736601 2.99311 0.749679 86 78 66
0.788701 2.99313 0.732823 90 38 6
-0.733998 2.99312 0.717255 190 184 184
-0.736601 2.99311 0.714659 131 120 117
-0.732695 2.99312 0.714661 164 165 168
-0.735299 2.99312 0.713363 162 153 153
-0.737903 2.99311 0.712066 107 98 97
-0.733998 2.99312 0.712067 181 178 180
-0.735299 2.99312 0.706878 172 163 160
-0.718466 4.16902 0.984589 54 50 53
-0.722094 4.16902 0.973749 94 93 91
-0.716647 4.16899 0.973743 40 45 51
-0.727532 4.16899 0.970129 138 138 139
-0.722094 4.16902 0.970136 95 94 88
-0.716647 4.16899 0.97013 46 44 44
0.69068 2.24484 0.522377 184 179 186
-0.729342 4.16896 0.968316 144 144 142
-0.723904 4.16899 0.968323 111 109 104
-0.729342 4.16896 0.96651 138 138 136
-0.723904 4.16899 0.966517 112 114 108
-0.718466 4.16902 0.966523 72 68 60
0.689705 2.24484 0.520433 171 168 176
-0.735299 2.99312 0.691314 152 140 135
-0.729342 4.16896 0.962896 138 138 138
-0.723904 4.16899 0.962904 111 113 110
-0.718466 4.16902 0.96291 74 73 69
-0.736601 2.99311 0.690016 93 90 82
-0.729342 4.16896 0.96109 142 142 142
-0.723904 4.16899 0.961097 118 122 117
-0.718466 4.16902 0.961103 69 69 67
0.691544 2.20248 0.507747 116 119 123
-0.714836 4.16901 0.94123 32 42 44
-0.733998 2.99312 0.674453 170 163 160
-0.716647 4.16899 0.939418 47 55 52
0.693768 2.28887 0.515761 136 141 151
-0.732695 2.99312 0.669266 189 185 185
0.695759 2.28886 0.511793 149 155 169
-0.731398 2.99315 0.652409 148 145 142
-0.704038 2.99312 0.652404 5 5 21
-0.715583 4.02523 0.877371 99 100 95
0.216744 3.89109 0.848132 94 71 47
0.221821 3.89105 0.848124 115 93 55
0.708149 2.33464 0.508876 152 145 175
-0.731398 2.99315 0.649816 158 157 157
0.215049 3.89106 0.844754 85 64 33
0.220129 3.89106 0.844755 109 80 42
0.22521 3.89109 0.844761 150 110 45
-0.736601 2.99311 0.648512 84 78 66
0.216744 3.89109 0.843074 92 69 32
-0.732695 2.99312 0.647216 190 184 186
-0.735299 2.99312 0.644621 139 121 116
-0.731398 2.99315 0.644627 160 157 159
0.218434 3.89104 0.838005 108 71 39
-0.733998 2.99312 0.643325 172 158 151
-0.730089 2.99312 0.643325 102 95 97
-0.733998 2.99312 0.640731 158 149 140
0.216744 3.89109 0.832957 89 61 28
-1.02786 2.59404 0.550805 38 10 22
-0.751844 3.89106 0.826207 152 98 14
-1.02786 2.59404 0.548557 38 14 23
-0.732695 2.99312 0.632949 189 181 177
-0.716278 3.89103 0.822828 176 187 205
-0.711205 3.89107 0.822836 139 150 155
-0.716278 3.89103 0.819455 174 187 205
-0.711205 3.89107 0.819463 126 129 135
-0.735299 2.99312 0.62776 118 98 94
-0.714588 3.89105 0.816087 170 184 197
-0.709507 3.89104 0.816086 118 118 114
-0.716278 3.89103 0.811025 178 189 207
-0.711205 3.89107 0.811033 132 136 142
-0.711205 3.89107 0.804288 138 143 150
-1.02447 2.59404 0.531694 94 14 9
-0.716278 3.89103 0.797536 176 189 203
-0.711205 3.89107 0.797544 157 164 175
-0.704425 3.89103 0.797536 181 190 200
-0.716647 4.16899 0.85451 24 41 53
-1.0256 2.59404 0.53057 94 15 16
-0.714588 3.89105 0.795853 173 187 206
-0.709507 3.89104 0.795852 159 166 174
-0.716647 4.16899 0.852703 28 40 51
-1.02447 2.59404 0.528322 90 9 10
-0.732695 2.99312 0.609602 155 150 146
-0.712896 3.89106 0.792483 169 182 200
-0.707817 3.89106 0.792483 145 150 157
-0.714836 4.16901 0.849094 14 37 52
0.764174 3.3352 0.679273 52 18 1
-0.731398 2.99315 0.608311 156 151 154
-0.712896 3.89106 0.790797 167 180 199
-0.707817 3.89106 0.790798 144 148 155
-0.716647 4.16899 0.847283 26 36 44
-0.714588 3.89105 0.787423 171 184 204
-0.716647 4.16899 0.84367 21 40 59
-0.718466 4.16902 0.840062 23 41 55
-0.714588 3.89105 0.782364 168 180 199
-0.718466 4.16902 0.838256 30 40 55
-0.719665 3.89103 0.778989 157 158 166
-0.714588 3.89105 0.778992 173 185 205
-0.70274 3.89108 0.772254 180 183 195
-0.70274 3.89108 0.770567 178 184 195
-0.745066 3.89103 0.767187 93 42 2
-0.724749 3.89105 0.76719 67 47 28
-0.719665 3.89103 0.767186 155 154 154
-0.707817 3.89106 0.767192 140 142 148
-0.70274 3.89108 0.767195 180 184 194
-0.746767 3.89107 0.765509 104 54 11
-0.726445 3.89106 0.765507 83 57 44
-0.721363 3.89105 0.765505 103 97 89
-0.70274 3.89108 0.765509 179 185 193
-0.843847 2.59404 0.508089 48 42 38
-0.746767 3.89107 0.762136 98 58 5
-0.731525 3.89107 0.762135 91 74 71
-0.726445 3.89106 0.762134 72 45 40
-0.721363 3.89105 0.762132 107 95 94
-0.714588 3.89105 0.762131 172 181 202
-0.750145 3.89103 0.758756 140 79 38
-0.745066 3.89103 0.758757 81 40 0
-0.724749 3.89105 0.75876 68 50 43
-0.719665 3.89103 0.758756 154 151 156
-0.839329 2.59403 0.504716 44 44 44
-0.748458 3.89107 0.757076 121 65 23
-0.743379 3.89107 0.757077 82 40 7
-0.726445 3.89106 0.757076 74 59 42
-0.721363 3.89105 0.757074 100 93 91
-0.70274 3.89108 0.757078 172 179 190
-0.719665 3.89103 0.752011 160 156 162
0.779925 3.43329 0.641228 6 1 0
0.784409 3.4333 0.64123 57 19 4
-0.972539 2.59404 0.482234 149 139 118
-0.722091 2.77934 0.516682 100 80 92
-0.733998 2.99312 0.556425 27 18 18
-0.730089 2.99312 0.556425 98 96 94
-0.711205 3.89107 0.723354 158 175 190
-0.706125 3.89107 0.723354 129 137 141
-0.714836 4.16901 0.775025 0 25 50
0.779925 3.43329 0.638253 6 1 0
-0.972539 2.59404 0.48111 147 137 115
-0.843847 2.59404 0.481111 52 39 42
-0.72451 2.77934 0.515478 40 48 70
-0.720878 2.77933 0.515476 119 85 93
-0.717249 2.77932 0.515475 41 33 40
-0.733998 2.99312 0.555128 26 17 15
-0.730089 2.99312 0.555128 98 91 86
-0.716278 3.89103 0.721661 178 188 200
-0.711205 3.89107 0.721668 152 172 190
-0.699355 3.89108 0.721671 182 187 196
-0.720276 4.169 0.773215 81 99 122
0.778432 3.43329 0.636766 19 3 0
0.782916 3.4333 0.636768 25 7 0
0.787392 3.43328 0.636763 88 41 0
-0.722091 2.77934 0.514273 107 83 89
-0.718457 2.77932 0.51427 70 53 63
-0.843847 2.59404 0.478863 48 35 35
-0.725717 2.77933 0.513067 3 26 36
-0.722091 2.77934 0.513069 114 91 93
-0.733998 2.99312 0.552534 27 15 8
-0.730089 2.99312 0.552534 103 96 92
-0.711205 3.89107 0.718296 160 174 190
-0.706125 3.89107 0.718295 132 135 144
-0.699355 3.89108 0.718298 184 188 196
-0.718466 4.16902 0.769606 73 92 115
-0.842717 2.59404 0.477738 57 51 50
-0.726929 2.77934 0.511865 18 33 40
-0.723298 2.77933 0.511863 46 37 43
-0.733998 2.99312 0.551237 30 18 16
-0.730089 2.99312 0.551237 95 89 88
-0.711205 3.89107 0.71661 166 173 189
-0.706125 3.89107 0.716609 137 137 146
-0.699355 3.89108 0.716613 187 188 197
0.779925 3.43329 0.632302 28 5 3
-0.726929 2.77934 0.51066 30 46 55
-0.723298 2.77933 0.510659 37 29 37
-0.719666 2.77931 0.510656 121 113 113
-0.733998 2.99312 0.54994 28 22 20
-0.730089 2.99312 0.54994 93 90 91
-0.706125 3.89107 0.714923 136 137 145
-0.843847 2.59404 0.474366 47 39 42
-0.72451 2.77934 0.508252 24 27 40
-0.706125 3.89107 0.711551 137 141 152
-0.701047 3.89108 0.711553 169 171 176
0.779925 3.43329 0.627838 7 4 0
-0.72451 2.77934 0.507048 36 39 52
-0.706125 3.89107 0.709865 139 143 154
-0.701047 3.89108 0.709867 164 166 170
0.756257 3.76553 0.667382 64 23 0
0.756257 3.76553 0.664118 74 27 1
-0.714588 3.89105 0.682883 170 182 201
0.296331 3.8911 0.682892 127 80 42
0.723043 3.89103 0.590145 95 47 1
-0.663838 3.15492 0.477133 204 92 110
-0.753078 3.15491 0.471663 79 28 26
-0.665212 3.15493 0.471666 182 81 86
0.209968 3.89104 0.581715 171 178 188
0.211661 3.89104 0.576656 178 186 194
-0.670698 3.1549 0.466193 79 4 8
-0.989474 2.59404 0.37882 17 17 16
-0.670698 3.1549 0.460724 88 2 11
0.208277 3.89108 0.568232 183 185 197
-0.714634 3.15491 0.457991 50 4 2
-0.667955 3.15492 0.457992 105 13 19
-0.711205 3.89107 0.564858 151 169 187
-0.714634 3.15491 0.456624 51 4 3
-0.669329 3.15492 0.456626 92 5 10
-0.718752 3.1549 0.455256 89 27 31
-0.714634 3.15491 0.455257 49 7 5
-0.674823 3.15493 0.45526 216 98 129
-0.669329 3.15492 0.455259 87 5 6
-0.709507 3.89104 0.561482 139 162 180
0.208277 3.89108 0.561488 144 144 157
-0.713263 3.15491 0.453891 35 1 0
-0.669329 3.15492 0.453892 81 4 1
-0.709507 3.89104 0.559796 137 162 179
0.208277 3.89108 0.559802 129 128 139
-0.663838 3.15492 0.449791 188 87 93
-0.709507 3.89104 0.554737 148 162 180
-0.707817 3.89106 0.549681 143 151 172
-0.669329 3.15492 0.444322 70 5 3
-0.707817 3.89106 0.547995 148 154 175
-0.727713 2.9183 0.408467 114 73 81
-0.665212 3.15493 0.441589 117 30 28
-0.707817 3.89106 0.544623 141 150 171
-0.727713 2.9183 0.407203 105 65 75
-0.667955 3.15492 0.44022 73 3 4
-0.663838 3.15492 0.440221 151 53 55
-0.726444 2.9183 0.405939 116 88 101
-0.669329 3.15492 0.438854 71 2 6
-0.665212 3.15493 0.438855 123 36 35
0.207575 4.02525 0.559916 80 76 70
-0.669329 3.15492 0.437487 68 1 3
-0.665212 3.15493 0.437487 121 31 30
0.228595 3.89105 0.539564 97 71 15
-0.670698 3.1549 0.434749 80 4 17
-0.666581 3.15491 0.434751 91 8 2
-0.662464 3.15492 0.434751 142 39 46
-0.729342 4.16896 0.574488 38 74 89
-0.669329 3.15492 0.432018 75 5 3
-0.665212 3.15493 0.432019 100 24 11
-0.727532 4.16899 0.570878 1 43 64
-0.725722 4.16901 0.563655 18 48 86
0.221821 3.89105 0.526074 57 32 5
0.228595 3.89105 0.526075 101 64 21
-0.842717 2.59404 0.349593 50 52 46
0.221821 3.89105 0.524388 58 33 5
0.228595 3.89105 0.524389 96 62 21
0.631438 1.02397 0.137998 124 96 53
0.638596 1.03303 0.139219 99 74 48
0.22521 3.89109 0.522708 81 53 8
0.644977 1.04225 0.14001 80 63 44
-0.669329 3.15492 0.422448 106 23 38
-0.714588 3.89105 0.521016 176 182 197
-0.727532 4.16899 0.558232 18 65 93
0.637248 1.03303 0.138324 115 90 41
0.632771 1.02397 0.13711 105 88 58
0.638146 1.03303 0.137876 110 90 62
0.638596 1.03303 0.137428 102 88 73
-0.714588 3.89105 0.507527 171 178 191
-0.732695 2.99312 0.385218 10 1 2
-0.658342 3.15491 0.40604 204 100 118
-0.717976 3.89105 0.500783 109 105 107
-0.712896 3.89106 0.500784 162 179 198
-0.731158 4.16898 0.536552 61 86 115
-0.732695 2.99312 0.383921 7 1 1
-0.663838 3.15492 0.404675 81 7 2
-0.658342 3.15491 0.404673 202 103 114
-0.716278 3.89103 0.499094 152 157 163
-0.731158 4.16898 0.534745 64 87 112
-0.717976 3.89105 0.497411 104 101 101
-0.666581 3.15491 0.401939 76 2 7
-0.717976 3.89105 0.495725 106 102 102
-0.712896 3.89106 0.495725 160 183 201
-0.729342 4.16896 0.53113 43 73 95
-0.842717 2.59404 0.328235 53 53 54
-0.665212 3.15493 0.399207 78 2 3
-0.659718 3.15492 0.399206 175 78 86
-0.716278 3.89103 0.492349 150 154 161
-0.734791 4.169 0.527522 76 104 121
-0.729342 4.16896 0.527517 34 75 99
-0.732974 4.16899 0.523907 74 102 119
-0.727532 4.16899 0.523908 15 56 87
-0.729342 4.16896 0.522098 35 61 84
-0.714634 3.15491 0.391002 32 1 2
-0.725722 4.16901 0.509459 1 35 75
-0.65285 3.1549 0.36776 140 44 51
-0.714634 3.15491 0.356824 27 1 2
-0.710517 3.15491 0.356825 72 24 16
-0.718752 3.1549 0.352722 55 8 8
-0.714634 3.15491 0.352722 26 4 5
-0.717385 3.15493 0.349991 45 4 9
-0.714634 3.15491 0.33495 16 1 1
-0.710517 3.15491 0.33495 79 28 26
-0.666581 3.15491 0.33495 199 93 108
-0.710517 3.15491 0.333583 90 35 35
-0.709144 3.15491 0.330849 115 33 44
-0.639236 3.24255 0.338634 157 78 84
-0.643242 3.15492 0.259759 138 48 54
-0.643242 3.15492 0.258392 137 44 55
-0.643242 3.15492 0.257025 140 42 57
-0.629355 3.24253 0.264162 236 103 118
-0.625126 3.24255 0.264164 226 105 126
-0.643242 3.15492 0.25429 139 43 50
-0.639118 3.15489 0.254288 170 64 66
0.524162 3.53735 0.285114 0 107 106
0.528777 3.53732 0.285112 3 91 78
-0.625126 3.24255 0.258543 216 94 111
0.525702 3.53735 0.282049 2 110 109
0.525702 3.53735 0.278983 1 107 94
0.524162 3.53735 0.274384 0 99 95
0.524162 3.53735 0.272852 0 97 93
0.525702 3.53735 0.269786 0 89 85
-0.709144 3.15491 0.231048 44 3 3
-0.705028 3.15493 0.23105 106 37 31
-0.261887 4.02523 0.279087 25 29 22
-0.260137 4.02526 0.265135 56 56 55
-0.254879 4.02521 0.265132 88 88 88
0.0744442 4.02527 0.265136 229 235 245
-0.694041 3.15491 0.203706 85 18 15
0.0761955 4.02524 0.259901 222 230 242
-0.694041 3.15491 0.202339 87 21 19
0.0761955 4.02524 0.258157 228 237 248
-0.696787 3.15491 0.199605 60 4 8
-0.692666 3.1549 0.199604 132 62 54
-0.688554 3.15494 0.199606 128 37 38
-0.254879 4.02521 0.254666 67 74 78
0.0761955 4.02524 0.254668 234 244 252
-0.70228 3.15492 0.198238 119 58 60
-0.694041 3.15491 0.198237 104 39 30
0.0761955 4.02524 0.252924 240 247 253
-0.265393 4.02527 0.249437 39 26 26
0.0761955 4.02524 0.249435 238 243 252
-0.70228 3.15492 0.192769 115 51 53
-0.267142 4.02523 0.245946 35 31 31
-0.267142 4.02523 0.244202 23 23 22
-0.270647 4.02526 0.240715 84 69 64
-0.656973 3.15492 0.181832 141 40 57
-0.65285 3.1549 0.181831 107 10 21
-0.64873 3.1549 0.181831 72 1 5
-0.268896 4.02526 0.231994 50 46 34
-0.263639 4.02523 0.231992 28 39 37
-0.258383 4.02522 0.231991 179 179 179
-0.253128 4.02524 0.231992 52 51 45
-0.247874 4.02524 0.231992 44 43 21
-0.643242 3.15492 0.179098 103 16 20
-0.267142 4.02523 0.228504 19 27 18
-0.261887 4.02523 0.228503 66 70 63
-0.251376 4.02523 0.228503 40 36 37
-0.655597 3.15491 0.17773 140 41 52
-0.647364 3.15493 0.177731 69 2 2
-0.643242 3.15492 0.177731 99 16 19
-0.267142 4.02523 0.226759 35 32 25
-0.256633 4.02525 0.22676 129 129 132
-0.251376 4.02523 0.226759 41 36 40
-0.246121 4.02522 0.226759 75 72 70
-0.710517 3.15491 0.176363 10 0 0
-0.703654 3.15493 0.176364 81 26 30
-0.662464 3.15492 0.176364 200 89 101
-0.658342 3.15491 0.176363 178 85 102
-0.650107 3.15492 0.176364 91 6 8
-0.645986 3.15491 0.176363 70 2 2
-0.263639 4.02523 0.225015 32 38 30
-0.258383 4.02522 0.225015 178 179 179
-0.251376 4.02523 0.225015 37 34 34
-0.246121 4.02522 0.225015 73 67 64
0.268887 4.02526 0.225017 152 154 170
-0.710517 3.15491 0.173629 6 0 0
-0.659718 3.15492 0.173629 213 117 131
-0.268896 4.02526 0.221528 55 45 42
-0.263639 4.02523 0.221527 33 34 31
-0.258383 4.02522 0.221526 171 173 178
-0.253128 4.02524 0.221527 60 57 56
-0.710517 3.15491 0.172262 6 0 0
-0.658342 3.15491 0.172262 198 108 122
-0.654226 3.15492 0.172262 141 35 48
-0.650107 3.15492 0.172262 107 15 29
-0.641869 3.15492 0.172262 89 12 13
-0.265393 4.02527 0.219784 26 24 20
-0.254879 4.02521 0.219781 72 71 75
-0.249624 4.02521 0.219782 38 35 21
-0.244368 4.02521 0.219781 106 98 95
-0.710517 3.15491 0.170895 6 0 0
-0.706397 3.15491 0.170895 54 11 11
-0.658342 3.15491 0.170894 198 110 123
-0.654226 3.15492 0.170895 141 42 51
-0.650107 3.15492 0.170895 117 27 41
-0.640492 3.1549 0.170894 125 37 31
-0.611019 3.24257 0.175643 225 122 133
-0.268896 4.02526 0.21804 59 47 43
-0.263639 4.02523 0.218038 34 33 30
-0.258383 4.02522 0.218037 182 182 188
-0.251376 4.02523 0.218038 46 46 35
0.683189 2.99312 0.162131 52 124 155
-0.710517 3.15491 0.169528 10 0 0
-0.706397 3.15491 0.169528 42 4 3
-0.661093 3.15493 0.169529 193 93 101
-0.656973 3.15492 0.169528 158 69 83
-0.644614 3.15492 0.169528 77 3 3
-0.640492 3.1549 0.169527 122 32 21
-0.268896 4.02526 0.216295 62 49 42
-0.258383 4.02522 0.216293 184 181 188
-0.251376 4.02523 0.216294 38 36 31
-0.659718 3.15492 0.166794 197 101 109
-0.655597 3.15491 0.166793 158 54 74
-0.265393 4.02527 0.212807 25 19 19
-0.659718 3.15492 0.165426 198 101 111
-0.655597 3.15491 0.165426 159 52 74
-0.651478 3.15491 0.165426 144 32 47
-0.647364 3.15493 0.165427 105 15 17
-0.643242 3.15492 0.165427 83 6 1
-0.261887 4.02523 0.202339 61 60 58
-0.256633 4.02525 0.202341 139 137 141
-0.251376 4.02523 0.20234 39 39 23
-0.265393 4.02527 0.197108 24 28 15
-0.260137 4.02526 0.197108 113 110 111
-0.254879 4.02521 0.197105 76 76 78
-0.249624 4.02521 0.197106 39 32 16
-0.265393 4.02527 0.195364 22 25 15
-0.260137 4.02526 0.195364 115 115 116
-0.254879 4.02521 0.195361 74 74 75
-0.249624 4.02521 0.195362 45 33 19
-0.265393 4.02527 0.191876 30 27 26
-0.260137 4.02526 0.191876 119 119 122
-0.254879 4.02521 0.191873 77 77 80
-0.270647 4.02526 0.190131 92 90 86
-0.265393 4.02527 0.190132 29 26 26
-0.260137 4.02526 0.190131 118 114 117
-0.254879 4.02521 0.190129 78 80 82
-0.249624 4.02521 0.190129 42 32 34
0.579713 3.43329 0.16217 26 39 56
-0.265393 4.02527 0.186643 26 26 26
-0.260137 4.02526 0.186642 111 111 109
-0.254879 4.02521 0.18664 75 77 79
-0.272399 4.02525 0.184898 118 114 110
-0.267142 4.02523 0.184897 23 21 21
-0.256633 4.02525 0.184898 137 135 136
-0.251376 4.02523 0.184897 41 39 34
-0.270647 4.02526 0.183154 101 92 92
-0.265393 4.02527 0.183154 19 17 12
-0.260137 4.02526 0.183154 111 109 107
-0.254879 4.02521 0.183152 76 77 80
0.349247 3.64788 0.165983 179 205 230
0.35401 3.64789 0.165983 237 240 247
0.513383 3.53732 0.160952 0 89 89
-0.270647 4.02526 0.177921 104 97 96
-0.265393 4.02527 0.177921 27 27 29
-0.260137 4.02526 0.177921 101 105 104
-0.254879 4.02521 0.177919 75 79 77
0.344483 3.64787 0.16124 113 143 164
0.349247 3.64788 0.16124 208 227 244
-0.265393 4.02527 0.176177 29 29 28
-0.260137 4.02526 0.176177 102 105 105
-0.254879 4.02521 0.176174 76 81 73
-0.270647 4.02526 0.174432 104 99 97
-0.265393 4.02527 0.174433 23 25 19
-0.260137 4.02526 0.174433 109 113 112
-0.254879 4.02521 0.17443 80 81 72
-0.270647 4.02526 0.170944 106 105 99
-0.265393 4.02527 0.170944 30 30 27
-0.260137 4.02526 0.170944 106 109 112
-0.254879 4.02521 0.170942 72 73 70
-0.270647 4.02526 0.167455 102 101 99
-0.265393 4.02527 0.167456 36 32 33
-0.260137 4.02526 0.167456 110 108 113
-0.254879 4.02521 0.167453 78 82 90
-0.249624 4.02521 0.167454 37 34 27
-0.0551839 4.02524 0.167455 128 134 131
0.344483 3.64787 0.151755 177 198 227
-0.651478 3.15491 0.129881 160 48 59
-0.270647 4.02526 0.165711 101 98 99
-0.265393 4.02527 0.165711 37 33 34
-0.258383 4.02522 0.165709 164 163 167
-0.251376 4.02523 0.16571 44 42 40
0.342896 3.64788 0.150175 159 184 214
-0.65285 3.1549 0.127146 161 56 63
-0.64873 3.1549 0.127146 137 35 36
-0.644614 3.15492 0.127147 96 8 14
-0.270647 4.02526 0.162222 116 107 106
-0.265393 4.02527 0.162223 31 31 29
-0.260137 4.02526 0.162223 112 112 114
-0.254879 4.02521 0.16222 73 76 78
-0.249624 4.02521 0.162221 47 40 30
0.342896 3.64788 0.147014 173 196 226
0.39052 3.64786 0.147013 96 109 123
-0.267142 4.02523 0.160477 34 31 26
-0.256633 4.02525 0.160478 147 146 151
-0.251376 4.02523 0.160477 48 44 28
-0.265393 4.02527 0.158734 32 32 29
-0.260137 4.02526 0.158734 108 108 110
-0.254879 4.02521 0.158732 81 79 75
-0.661223 3.76554 0.140334 155 162 182
-0.656306 3.76553 0.140333 107 111 121
-0.651392 3.76554 0.140334 89 67 77
-0.265393 4.02527 0.150013 32 31 34
-0.258383 4.02522 0.150011 157 159 161
-0.253128 4.02524 0.150012 59 59 60
-0.643242 3.15492 0.114843 111 21 21
-0.639118 3.15489 0.114842 71 4 1
-0.635003 3.15492 0.114843 141 50 47
-0.659586 3.76555 0.137071 136 146 167
-0.654668 3.76554 0.13707 108 102 119
-0.265393 4.02527 0.146525 29 24 26
-0.260137 4.02526 0.146524 107 107 109
-0.254879 4.02521 0.146522 80 78 84
-0.249624 4.02521 0.146523 33 33 29
-0.0551839 4.02524 0.146524 18 17 8
0.0832019 4.02523 0.146523 141 150 182
-0.639118 3.15489 0.113475 73 4 1
-0.635003 3.15492 0.113475 133 46 39
-0.654668 3.76554 0.135438 119 112 129
-0.265393 4.02527 0.14478 26 26 23
-0.258383 4.02522 0.144778 166 166 169
-0.251376 4.02523 0.144779 41 40 37
-0.246121 4.02522 0.144778 80 66 64
-0.0551839 4.02524 0.144779 20 14 11
-0.0481769 4.02523 0.144779 61 55 53
-0.042922 4.02523 0.144779 30 30 27
0.470875 1.28277 0.0461383 103 95 84
-0.637745 3.15489 0.112108 73 4 0
-0.265393 4.02527 0.143036 26 29 24
-0.260137 4.02526 0.143036 104 104 104
-0.254879 4.02521 0.143034 84 83 88
-0.249624 4.02521 0.143034 39 27 17
-0.0481769 4.02523 0.143035 55 53 47
-0.042922 4.02523 0.143035 27 27 23
-0.637745 3.15489 0.11074 81 7 2
-0.659586 3.76555 0.132175 130 140 162
-0.654668 3.76554 0.132175 119 117 128
-0.267142 4.02523 0.14129 28 35 25
-0.261887 4.02523 0.14129 51 54 53
-0.256633 4.02525 0.141291 148 146 149
-0.251376 4.02523 0.14129 44 40 36
-0.0481769 4.02523 0.14129 54 53 43
-0.042922 4.02523 0.14129 30 33 26
0.0814511 4.02526 0.141291 92 117 156
0.0867056 4.02523 0.14129 160 174 187
0.508767 3.53734 0.124165 43 111 93
0.470875 1.28277 0.0450266 98 92 86
0.473109 1.28277 0.0450266 46 36 30
-0.639118 3.15489 0.109373 82 4 5
-0.635003 3.15492 0.109374 118 27 25
-0.267142 4.02523 0.139546 26 37 27
-0.261887 4.02523 0.139546 54 57 54
-0.256633 4.02525 0.139547 149 149 152
-0.251376 4.02523 0.139546 53 50 50
-0.246121 4.02522 0.139546 80 63 49
-0.0551839 4.02524 0.139546 25 18 14
-0.04117 4.02523 0.139546 28 30 23
0.0814511 4.02526 0.139547 95 115 155
-0.641869 3.15492 0.108007 119 24 32
-0.637745 3.15489 0.108006 84 4 6
-0.633634 3.15493 0.108008 124 29 31
-0.267142 4.02523 0.137802 28 38 29
-0.261887 4.02523 0.137802 51 53 50
-0.256633 4.02525 0.137803 143 142 147
-0.249624 4.02521 0.137801 46 39 33
-0.0481769 4.02523 0.137802 57 54 46
-0.265393 4.02527 0.134314 22 25 22
-0.258383 4.02522 0.134313 165 168 171
-0.251376 4.02523 0.134313 47 44 34
0.469758 1.28277 0.0428031 103 101 85
0.471992 1.28277 0.0428032 40 38 29
-0.254879 4.02521 0.115126 95 93 100
-0.258383 4.02522 0.111637 236 236 237
-0.253128 4.02524 0.111638 91 96 99
-0.247874 4.02524 0.111638 34 30 36
-0.151529 4.02524 0.111638 71 71 70
-0.146274 4.02525 0.111638 214 215 217
-0.0569354 4.02523 0.111637 30 31 34
-0.0394187 4.02527 0.111639 47 36 39
-0.372244 4.02521 0.108149 129 132 131
-0.263639 4.02523 0.108149 64 75 72
-0.258383 4.02522 0.108149 228 232 231
-0.253128 4.02524 0.108149 86 96 102
-0.15328 4.02523 0.108149 84 91 92
-0.148025 4.02524 0.108149 201 204 204
-0.375748 4.02522 0.106404 27 33 36
-0.370497 4.02526 0.106406 144 147 146
-0.365241 4.02526 0.106405 228 230 234
-0.265393 4.02527 0.106406 41 43 43
-0.260137 4.02526 0.106406 159 162 161
-0.254879 4.02521 0.106404 137 139 144
-0.246121 4.02522 0.106405 50 41 39
-0.155032 4.02524 0.106405 77 80 82
-0.149777 4.02522 0.106405 197 199 201
-0.144521 4.02523 0.106405 62 62 62
-0.0394187 4.02527 0.106406 45 40 41
0.474132 1.29702 0.0342861 120 107 86
0.475825 1.29702 0.0342861 96 87 71
-0.375748 4.02522 0.10466 36 37 40
-0.370497 4.02526 0.104662 95 99 98
-0.365241 4.02526 0.104661 245 245 247
-0.258383 4.02522 0.104661 173 174 176
-0.253128 4.02524 0.104661 66 67 67
-0.246121 4.02522 0.104661 36 31 25
-0.156785 4.02526 0.104662 60 56 57
-0.151529 4.02524 0.104661 182 184 188
-0.146274 4.02525 0.104661 72 71 77
-0.141019 4.02525 0.104661 40 40 32
-0.0394187 4.02527 0.104662 44 39 41
-0.834817 2.59405 0.0663241 44 54 53
-0.703654 3.15493 0.0806645 82 23 22
-0.637745 3.15489 0.0806637 88 2 5
-0.633634 3.15493 0.0806647 111 15 12
-0.629512 3.15492 0.0806644 147 51 58
-0.379251 4.02522 0.102916 104 103 102
-0.373997 4.02523 0.102916 37 35 34
-0.36349 4.02527 0.102917 226 228 232
-0.256633 4.02525 0.102917 119 120 122
-0.251376 4.02523 0.102916 55 56 46
-0.246121 4.02522 0.102916 37 33 24
-0.158535 4.02524 0.102917 50 47 46
-0.15328 4.02523 0.102916 171 172 175
-0.148025 4.02524 0.102917 96 93 100
-0.14277 4.02524 0.102916 53 45 42
-0.137516 4.02526 0.102917 65 69 68
-0.0569354 4.02523 0.102916 28 27 24
-0.0516803 4.02522 0.102916 48 53 49
-0.0394187 4.02527 0.102917 52 41 48
-0.0341633 4.02525 0.102917 78 80 76
0.226955 3.76552 0.0962761 189 201 221
0.46905 1.55642 0.0397943 96 79 70
0.471084 1.55643 0.0397944 147 133 111
0.473116 1.55643 0.0397944 157 143 117
0.462147 1.516 0.0387608 178 150 124
0.4692 1.28277 0.0327976 105 95 64
0.470875 1.28277 0.0327976 89 74 70
0.472549 1.28277 0.0327975 82 58 26
0.530383 0.98925 0.025293 104 55 14
0.531679 0.989258 0.0252932 54 20 0
-0.834817 2.59405 0.0640761 44 49 46
-0.705028 3.15493 0.0779306 49 7 6
-0.636377 3.15492 0.0779303 85 3 3
-0.632261 3.15493 0.0779306 113 17 17
-0.373997 4.02523 0.0994281 46 38 37
-0.368739 4.0252 0.0994273 72 70 75
-0.36349 4.02527 0.0994289 219 222 224
-0.358232 4.02524 0.0994283 82 91 94
-0.267142 4.02523 0.099428 16 25 25
-0.251376 4.02523 0.099428 56 53 51
-0.246121 4.02522 0.0994279 35 38 33
-0.160288 4.02525 0.0994286 44 42 38
-0.155032 4.02524 0.0994284 133 132 136
-0.149777 4.02522 0.0994278 113 109 117
-0.144521 4.02523 0.0994279 62 47 42
-0.139267 4.02525 0.0994286 37 43 28
-0.0569354 4.02523 0.099428 21 30 22
-0.0394187 4.02527 0.099429 37 35 39
-0.0341633 4.02525 0.0994285 78 78 70
0.226955 3.76552 0.0930129 178 186 207
0.467019 1.55643 0.0384456 150 124 81
0.462545 1.53595 0.0379397 160 115 69
0.464551 1.53595 0.0379398 129 87 47
0.466557 1.53595 0.0379398 113 78 20
0.462147 1.516 0.037447 107 67 22
0.464126 1.516 0.0374471 97 43 14
0.525714 0.980939 0.0242304 95 47 15
0.531679 0.989258 0.0244359 49 19 0
-0.373997 4.02523 0.0976838 40 31 34
-0.36349 4.02527 0.0976846 210 212 213
-0.358232 4.02524 0.097684 96 101 106
-0.149777 4.02522 0.0976835 107 100 107
-0.144521 4.02523 0.0976836 56 48 41
0.461209 1.53595 0.0372741 177 147 110
0.463214 1.53595 0.0372741 145 97 52
0.465221 1.53595 0.0372743 99 55 10
0.470875 1.28277 0.03113 119 94 85
-0.635003 3.15492 0.0751959 83 4 0
-0.149777 4.02522 0.0959393 89 86 92
-0.144521 4.02523 0.0959393 50 44 39
0.461209 1.53595 0.0366086 179 151 114
0.463214 1.53595 0.0366085 105 52 15
-0.705028 3.15493 0.072462 40 2 2
-0.356481 4.02524 0.0924513 68 68 70
-0.356481 4.02524 0.0802413 73 73 76
-0.705028 3.15493 0.0615247 55 11 4
-0.361735 4.02523 0.0784966 148 147 151
-0.356481 4.02524 0.0784968 76 75 78
-0.258383 4.02522 0.0784964 185 185 187
-0.253128 4.02524 0.0784967 91 96 100
0.466435 1.76867 0.0168633 3 1 2
0.466435 1.76867 0.0160969 2 1 1
0.464125 1.76867 0.00306767 39 33 21
-0.703654 3.15493 0.00273784 59 7 5
-0.633634 3.15493 0.00273785 94 10 14
0.464504 1.59906 0.00138767 57 18 0
-0.703654 3.15493 -0.00546482 46 5 4
0.467696 1.55642 -0.00269597 123 90 50
-0.703654 3.15493 -0.00819906 42 3 1
0.46431 1.55643 -0.00404486 130 123 77
0.466342 1.55643 -0.00404486 151 136 113
0.468375 1.55643 -0.00404487 94 54 16
0.471433 1.28277 -0.00333367 101 84 55
0.464988 1.55643 -0.00471931 139 129 91
0.467019 1.55643 -0.0047193 138 121 90
0.459851 1.74226 -0.00905769 6 1 0
0.464125 1.76867 -0.0107278 51 35 23
0.459851 1.74226 -0.0105677 3 2 1
0.464125 1.76867 -0.0114943 52 34 21
0.459851 1.74226 -0.0113227 2 1 2
0.464894 1.76866 -0.0122607 23 7 1
0.467202 1.76866 -0.0122606 1 0 1
0.461816 1.76867 -0.0137936 43 45 44
0.464125 1.76867 -0.0137936 40 31 17
0.466965 1.79587 -0.014784 6 8 11
0.461816 1.76867 -0.0145601 39 40 40
0.464125 1.76867 -0.0145601 41 32 19
0.459851 1.74226 -0.0143427 0 0 0
0.472549 1.28277 -0.01056 124 95 63
0.520559 1.28277 -0.01056 126 120 98
0.462587 1.76867 -0.0153263 76 71 70
-0.665212 3.15493 -0.0587834 144 56 58
0.461047 1.76867 -0.0551805 30 30 32
0.467202 1.76866 -0.0551801 1 1 0
-0.666581 3.15491 -0.0997967 176 89 109
0.461816 1.76867 -0.0559468 51 48 48
0.464125 1.76867 -0.0559467 32 13 4
0.467202 1.76866 -0.0559465 1 1 0
0.461816 1.76867 -0.0567133 48 45 46
0.464125 1.76867 -0.0567133 33 14 4
0.467202 1.76866 -0.056713 0 0 0
-0.667955 3.15492 -0.102531 159 75 83
-0.663838 3.15492 -0.102531 136 61 74
0.461047 1.76867 -0.0574797 26 23 22
0.467202 1.76866 -0.0574794 0 0 0
0.461047 1.76867 -0.0582461 25 25 25
0.463356 1.76867 -0.058246 55 46 42
0.464125 1.76867 -0.0605453 23 10 5
0.464125 1.76867 -0.0613118 24 11 7
-0.575962 3.1549 -0.1121 175 98 115
0.464125 1.76867 -0.0628446 28 14 13
-0.575962 3.1549 -0.113467 165 91 105
-0.571848 3.15492 -0.113468 113 34 39
-0.56586 3.24256 -0.11662 196 95 108
0.463356 1.76867 -0.0636109 69 49 54
0.467202 1.76866 -0.0636106 2 0 0
-0.687178 3.15492 -0.114836 113 29 37
-0.669329 3.15492 -0.114836 127 45 60
-0.578712 3.15492 -0.114835 71 23 16
-0.574594 3.15492 -0.114836 163 91 103
-0.57047 3.1549 -0.114835 125 44 45
-0.56586 3.24256 -0.118026 196 98 108
0.461816 1.76867 -0.0643775 53 43 43
0.464125 1.76867 -0.0643775 35 17 11
0.467202 1.76866 -0.0643772 1 0 0
0.469512 1.76866 -0.0643773 26 6 2
-0.687178 3.15492 -0.116203 123 39 46
-0.578712 3.15492 -0.116203 52 10 5
-0.574594 3.15492 -0.116203 171 106 111
-0.57047 3.1549 -0.116202 136 56 52
0.461816 1.76867 -0.0651439 57 47 50
0.464125 1.76867 -0.0651439 41 19 8
0.467202 1.76866 -0.0651436 3 0 0
-0.684429 3.15491 -0.117569 165 63 66
-0.57734 3.15492 -0.11757 71 28 21
0.464125 1.76867 -0.0659103 41 18 4
0.459851 1.74226 -0.0649264 3 0 0
-0.672072 3.15491 -0.118936 201 103 120
-0.667955 3.15492 -0.118937 160 88 107
-0.57734 3.15492 -0.118937 45 5 1
-0.573221 3.15492 -0.118937 159 90 84
-0.569097 3.1549 -0.118936 166 79 67
0.461816 1.76867 -0.0666767 53 49 46
0.464125 1.76867 -0.0666767 34 15 2
0.459851 1.74226 -0.0656814 3 0 0
0.462126 1.74227 -0.0656815 36 12 4
-0.689925 3.15493 -0.120304 162 88 98
-0.681686 3.15492 -0.120304 188 76 91
-0.665212 3.15493 -0.120304 87 28 55
-0.575962 3.1549 -0.120303 68 22 12
-0.571848 3.15492 -0.120304 180 101 102
0.461816 1.76867 -0.0674432 47 46 43
0.459851 1.74226 -0.0664364 3 0 0
0.462126 1.74227 -0.0664365 36 11 2
-0.666581 3.15491 -0.124405 185 97 112
0.461816 1.76867 -0.0697423 50 47 41
0.464125 1.76867 -0.0697422 29 12 6
0.459851 1.74226 -0.0687011 0 0 0
0.461816 1.76867 -0.0705089 51 46 38
0.464125 1.76867 -0.0705088 31 15 11
0.459851 1.74226 -0.0694563 1 0 0
0.464125 1.76867 -0.072808 23 10 11
0.459851 1.74226 -0.0717211 0 0 0
0.464125 1.76867 -0.0812386 34 17 10
0.464125 1.76867 -0.0843045 30 14 5
0.467202 1.76866 -0.0843041 3 1 0
0.459851 1.74226 -0.0845559 0 0 0
-0.705028 3.15493 -0.157217 19 0 1
0.461816 1.76867 -0.0881366 52 45 38
0.464125 1.76867 -0.0881365 26 19 6
0.467202 1.76866 -0.0881361 0 0 0
-0.706397 3.15491 -0.161317 65 3 10
-0.70228 3.15492 -0.161318 156 62 73
-0.705028 3.15493 -0.166787 107 33 38
-0.670698 3.1549 -0.166785 198 101 112
-0.666581 3.15491 -0.166786 119 38 54
-0.706397 3.15491 -0.168153 77 11 11
-0.667955 3.15492 -0.168153 183 101 118
-0.669329 3.15492 -0.170888 192 88 110
-0.669329 3.15492 -0.172255 192 84 102
-0.672072 3.15491 -0.183191 170 93 103
-0.705028 3.15493 -0.18456 119 45 54
-0.672072 3.15491 -0.184558 185 110 125
-0.703654 3.15493 -0.200965 119 44 42
0.478688 2.99312 -0.195846 67 24 2
-0.703654 3.15493 -0.228308 170 80 84
-0.703654 3.15493 -0.229675 182 86 96
-0.709144 3.15491 -0.244712 33 2 1
-0.709144 3.15491 -0.247447 17 0 0
-0.28864 3.53733 -0.27744 57 24 12
-0.709144 3.15491 -0.248814 16 0 0
-0.714634 3.15491 -0.25018 82 27 31
-0.709144 3.15491 -0.250181 14 0 0
-0.293257 3.53731 -0.280505 10 5 1
-0.28864 3.53733 -0.280506 39 10 1
0.459851 1.74226 -0.138159 3 0 1
-0.293257 3.53731 -0.282038 9 6 0
-0.28864 3.53733 -0.282039 51 18 2
0.464125 1.76867 -0.155582 26 13 12
0.459851 1.74226 -0.153259 2 1 0
-0.828044 2.59405 -0.229311 53 54 56
0.464125 1.76867 -0.156348 26 12 7
0.459851 1.74226 -0.154014 1 1 0
0.464125 1.76867 -0.157114 35 20 11
0.459851 1.74226 -0.154769 0 0 0
-0.709144 3.15491 -0.282992 4 0 0
-0.705028 3.15493 -0.282994 140 67 72
0.459851 1.74226 -0.156279 0 1 0
-0.709144 3.15491 -0.284359 7 0 0
-0.705028 3.15493 -0.284361 150 73 78
-0.828044 2.59405 -0.238303 50 50 48
-0.828044 2.59405 -0.255165 50 48 50
0.462587 1.76867 -0.186239 60 55 40
0.461816 1.76867 -0.187005 43 37 17
0.462587 1.76867 -0.187772 60 53 34
0.461816 1.76867 -0.189304 46 40 41
0.464125 1.76867 -0.189304 23 14 3
0.459851 1.74226 -0.186478 0 0 0
0.461816 1.76867 -0.190071 40 34 35
0.464125 1.76867 -0.190071 29 19 9
0.461816 1.76867 -0.190837 46 38 35
0.464125 1.76867 -0.190837 27 18 9
0.466435 1.76867 -0.190837 0 0 0
0.462587 1.76867 -0.191604 54 43 37
0.466435 1.76867 -0.191604 0 0 0
0.461816 1.76867 -0.19237 47 38 34
0.464125 1.76867 -0.19237 24 17 9
0.466435 1.76867 -0.19237 0 0 0
0.461816 1.76867 -0.194669 45 36 34
0.464125 1.76867 -0.194669 23 11 5
0.459851 1.74226 -0.191763 0 0 0
0.462126 1.74227 -0.191764 45 12 1
0.464125 1.76867 -0.195436 28 16 9
0.459851 1.74226 -0.192518 0 0 0
0.459851 1.74226 -0.193273 0 0 0
-0.825781 2.59403 -0.334972 58 53 55
-0.825781 2.59403 -0.338345 53 53 53
0.464125 1.76867 -0.255983 24 6 0
0.466435 1.76867 -0.255983 2 1 1
0.466435 1.76867 -0.257516 1 0 0
0.468744 1.76867 -0.257516 30 11 1
0.466435 1.76867 -0.258282 3 1 0
0.464125 1.76867 -0.259048 22 8 1
0.466435 1.76867 -0.259049 1 0 0
0.464125 1.76867 -0.259815 25 7 4
0.466435 1.76867 -0.259815 1 0 0
-0.59267 3.24255 -0.488972 181 93 100
-0.59267 3.24255 -0.490378 164 74 82
-0.59267 3.24255 -0.493188 162 67 75
0.466435 1.76867 -0.269012 0 0 0
0.461366 1.74226 -0.264996 32 11 0
-0.59267 3.24255 -0.494593 168 76 79
0.466435 1.76867 -0.269779 1 0 0
0.461366 1.74226 -0.265751 32 9 0
-0.594083 3.24256 -0.496 141 53 53
-0.589852 3.24257 -0.496002 167 79 88
0.466435 1.76867 -0.270545 1 1 0
0.468744 1.76867 -0.270545 41 12 0
-0.594083 3.24256 -0.497405 135 49 50
0.466435 1.76867 -0.271312 1 0 0
0.468744 1.76867 -0.271311 45 15 0
0.466435 1.76867 -0.272078 0 0 0
0.468744 1.76867 -0.272078 38 14 0
-0.588438 3.24256 -0.500215 182 113 118
0.466435 1.76867 -0.272844 2 0 0
0.461366 1.74226 -0.268771 32 11 0
0.466435 1.76867 -0.274377 1 0 0
0.466435 1.76867 -0.275144 2 0 0
-0.687253 3.33519 -0.541964 92 39 42
-0.591256 3.24253 -0.526908 149 77 66
0.465666 1.76867 -0.298137 1 1 0
-0.89916 1.79587 -0.320621 49 55 58
-0.899941 1.79587 -0.321398 37 37 40
0.465666 1.76867 -0.320363 3 1 0
0.465666 1.76867 -0.321896 5 1 0
0.465666 1.76867 -0.322662 6 2 0
0.465666 1.76867 -0.323429 6 3 0
0.465666 1.76867 -0.332626 0 0 0
0.465666 1.76867 -0.334159 1 0 1
0.463356 1.76867 -0.334924 26 10 13
0.465666 1.76867 -0.334925 0 0 0
0.465666 1.76867 -0.335692 1 0 1
0.465666 1.76867 -0.337224 1 0 0
0.465666 1.76867 -0.357151 0 0 0
-0.819011 2.59404 -0.537308 48 61 61
-0.899009 1.76867 -0.367114 27 24 32
-0.819011 2.59404 -0.538433 48 58 57
-0.899009 1.76867 -0.368647 22 22 24
-0.819011 2.59404 -0.540681 58 60 60
-0.819011 2.59404 -0.541805 58 58 58
-0.89824 1.76867 -0.37018 28 34 33
-0.819011 2.59404 -0.542929 56 53 54
0.463356 1.76867 -0.371712 21 4 3
0.463356 1.76867 -0.373245 24 5 4
0.465666 1.76867 -0.373246 0 0 0
0.463356 1.76867 -0.374012 27 5 3
0.464894 1.76866 -0.375544 1 0 0
0.464894 1.76866 -0.377843 2 0 0
0.464894 1.76866 -0.379376 1 1 0
0.464894 1.76866 -0.380143 1 1 0
0.464894 1.76866 -0.380909 0 0 0
0.464894 1.76866 -0.381676 1 0 0
0.467202 1.76866 -0.381674 22 8 0
0.462587 1.76867 -0.382443 36 18 15
0.465666 1.76867 -0.382443 0 0 0
0.467973 1.76866 -0.382441 57 32 1
0.465666 1.76867 -0.38321 0 0 0
0.467973 1.76866 -0.383208 52 26 1
0.467973 1.76866 -0.384741 52 19 1
0.464894 1.76866 -0.385508 2 0 0
0.467202 1.76866 -0.385506 26 4 2
-0.817878 2.59402 -0.566532 59 58 51
0.464894 1.76866 -0.386274 3 0 0
0.467202 1.76866 -0.386273 33 7 3
0.464894 1.76866 -0.387041 1 0 0
0.467202 1.76866 -0.387039 35 9 4
0.464894 1.76866 -0.387807 3 1 0
0.464894 1.76866 -0.388573 2 1 0
0.467202 1.76866 -0.388572 30 14 2
-0.817878 2.59402 -0.571028 56 54 52
0.464894 1.76866 -0.38934 4 2 0
0.467202 1.76866 -0.389338 31 19 1
0.464894 1.76866 -0.391639 2 0 0
0.464894 1.76866 -0.392406 1 0 0
0.464894 1.76866 -0.394705 1 0 0
0.464894 1.76866 -0.396237 0 0 0
0.485201 2.99312 -0.67315 14 4 8
0.464894 1.76866 -0.39777 2 0 0
0.464894 1.76866 -0.399303 1 0 0
0.470094 1.79588 -0.406225 29 19 7
0.464894 1.76866 -0.40007 0 0 0
0.462587 1.76867 -0.400837 28 17 14
0.464894 1.76866 -0.400836 0 0 0
0.464894 1.76866 -0.401603 2 0 0
-0.816756 2.59405 -0.591267 57 57 55
0.464894 1.76866 -0.403135 3 1 0
0.464894 1.76866 -0.403902 4 1 0
-0.816756 2.59405 -0.594639 61 62 61
0.464125 1.76867 -0.423063 2 0 0
0.471657 1.79588 -0.43035 1 0 0
0.464125 1.76867 -0.425362 2 0 1
0.466435 1.76867 -0.425362 27 4 2
0.464125 1.76867 -0.426128 1 0 2
0.464125 1.76867 -0.430727 2 1 0
0.464125 1.76867 -0.431493 3 1 1
0.462587 1.76867 -0.43226 24 12 9
0.464125 1.76867 -0.433793 0 0 0
0.469313 1.79588 -0.441246 36 30 20
0.464125 1.76867 -0.434559 0 0 0
0.464125 1.76867 -0.435325 0 0 0
0.464125 1.76867 -0.441457 1 1 0
0.463356 1.76867 -0.444523 0 1 0
0.464125 1.76867 -0.446055 1 3 0
0.464125 1.76867 -0.447588 0 1 0
0.469313 1.79588 -0.458366 28 20 17
0.464125 1.76867 -0.45142 3 1 0
0.464125 1.76867 -0.452953 6 0 0
0.464125 1.76867 -0.454486 8 1 0
0.464125 1.76867 -0.455252 9 1 0
0.461816 1.76867 -0.456019 41 32 25
0.464125 1.76867 -0.456019 5 1 0
0.461816 1.76867 -0.456786 32 24 20
0.464125 1.76867 -0.456785 4 0 0
0.464125 1.76867 -0.458318 3 0 0
0.461816 1.76867 -0.459085 34 28 23
0.464125 1.76867 -0.459085 3 0 0
0.469313 1.79588 -0.467705 32 21 16
0.464125 1.76867 -0.460617 2 1 0
0.469313 1.79588 -0.468483 34 26 22
0.464125 1.76867 -0.461384 1 1 0
0.502917 3.3352 -0.871484 117 109 104
0.50727 3.3352 -0.871482 82 72 61
0.463356 1.76867 -0.46215 1 1 0
0.465666 1.76867 -0.462151 30 21 9
0.463356 1.76867 -0.463683 1 0 0
0.463356 1.76867 -0.465216 2 1 0
0.465666 1.76867 -0.465217 26 19 20
0.464125 1.76867 -0.465982 1 0 0
0.464125 1.76867 -0.467515 3 1 0
0.470874 1.79587 -0.475485 1 1 0
0.465666 1.76867 -0.468283 24 15 8
0.469313 1.79588 -0.477044 32 25 11
0.469313 1.79588 -0.477821 29 17 9
0.464125 1.76867 -0.470581 1 1 0
0.46853 1.79587 -0.478598 53 38 33
0.470874 1.79587 -0.478598 0 0 0
0.465666 1.76867 -0.471349 35 20 5
0.460277 1.76867 -0.47288 54 49 43
0.463356 1.76867 -0.47288 1 1 1
0.465666 1.76867 -0.472881 34 23 4
0.463356 1.76867 -0.473647 0 0 0
0.465666 1.76867 -0.473648 34 23 8
0.507995 3.24255 -0.869756 93 87 80
0.469313 1.79588 -0.481713 25 22 18
0.464125 1.76867 -0.474413 0 0 0
-0.812239 2.59404 -0.698054 52 52 55
0.509411 3.24257 -0.872573 101 97 92
0.470874 1.79587 -0.483267 1 1 0
0.509411 3.24257 -0.873978 105 101 98
0.513642 3.24256 -0.873974 75 60 29
0.459507 1.76866 -0.476712 48 50 47
0.470874 1.79587 -0.484046 1 0 0
-0.812239 2.59404 -0.700302 47 50 52
0.510817 3.24254 -0.875375 105 99 87
0.469313 1.79588 -0.484826 23 20 14
-0.812239 2.59404 -0.70255 50 50 53
0.469313 1.79588 -0.486382 24 19 12
-0.812239 2.59404 -0.703675 59 59 61
0.469313 1.79588 -0.48716 23 19 13
-0.812239 2.59404 -0.705923 58 56 61
0.470874 1.79587 -0.488715 2 1 0
0.470874 1.79587 -0.489493 1 1 0
-0.812239 2.59404 -0.708171 46 46 45
0.470874 1.79587 -0.490271 1 0 0
0.465666 1.76867 -0.482845 22 8 3
0.469313 1.79588 -0.49183 22 11 10
0.464125 1.76867 -0.484376 0 0 0
0.469313 1.79588 -0.493386 26 17 14
0.464125 1.76867 -0.485909 0 0 0
0.461816 1.76867 -0.486676 30 19 12
0.463356 1.76867 -0.495107 0 0 0
0.463356 1.76867 -0.496639 0 1 0
0.461816 1.76867 -0.497406 28 15 18
0.464125 1.76867 -0.497406 4 3 0
-0.705028 3.15493 -0.890002 110 114 112
0.463356 1.76867 -0.498938 3 0 0
0.465666 1.76867 -0.49894 44 35 23
0.469313 1.79588 -0.507394 30 7 13
0.469313 1.79588 -0.508172 26 6 10
0.463356 1.76867 -0.502004 7 0 0
0.463356 1.76867 -0.504304 6 0 0
0.470094 1.79588 -0.513619 4 2 1
0.46853 1.79587 -0.522178 29 30 21
0.46853 1.79587 -0.532295 32 25 17
0.463356 1.76867 -0.52423 1 0 0
0.46853 1.79587 -0.534629 43 28 20
0.463356 1.76867 -0.52653 1 0 0
0.46853 1.79587 -0.535408 41 25 18
0.463356 1.76867 -0.527296 1 0 0
0.46853 1.79587 -0.536964 33 24 14
0.463356 1.76867 -0.528829 1 1 1
0.46853 1.79587 -0.537742 28 24 15
0.463356 1.76867 -0.529595 1 1 1
0.46853 1.79587 -0.539299 23 24 19
0.463356 1.76867 -0.531128 0 0 0
0.46853 1.79587 -0.540077 27 29 23
0.46853 1.79587 -0.540855 27 22 16
0.463356 1.76867 -0.532661 0 1 0
0.46853 1.79587 -0.543968 29 17 14
0.458737 1.76866 -0.536493 62 55 48
0.46853 1.79587 -0.544746 30 19 16
0.458737 1.76866 -0.538792 63 57 45
0.46853 1.79587 -0.547081 30 21 17
0.466186 1.79588 -0.54786 56 54 38
0.46853 1.79587 -0.547859 29 21 14
0.46853 1.79587 -0.550194 31 22 19
0.46853 1.79587 -0.553307 26 19 12
0.46853 1.79587 -0.556419 25 19 17
0.462587 1.76867 -0.559487 3 1 0
0.469313 1.79588 -0.570429 5 2 0
0.469313 1.79588 -0.571207 2 1 0
0.462587 1.76867 -0.564085 0 2 0
0.467751 1.79588 -0.584438 34 32 26
0.465404 1.79588 -0.586771 62 57 55
0.467751 1.79588 -0.586773 30 28 24
-0.712264 2.43192 -0.795641 125 125 124
0.465404 1.79588 -0.587549 61 52 50
0.467751 1.79588 -0.587551 38 32 28
-0.705432 2.653 -0.870271 38 28 23
-0.701965 2.65299 -0.870266 95 101 94
0.465404 1.79588 -0.589105 57 58 53
0.467751 1.79588 -0.589107 32 23 22
0.462587 1.76867 -0.58018 1 1 0
-0.706585 2.653 -0.871418 43 27 20
-0.703122 2.653 -0.87142 95 97 88
0.465404 1.79588 -0.589884 51 51 48
0.467751 1.79588 -0.589886 33 26 26
0.470094 1.79588 -0.589884 0 1 0
-0.704275 2.653 -0.872567 92 91 82
0.465404 1.79588 -0.590662 54 54 53
0.467751 1.79588 -0.590664 31 27 31
0.462587 1.76867 -0.581713 0 1 0
-0.707738 2.65299 -0.873715 48 41 26
-0.704275 2.653 -0.873716 101 101 96
0.463061 1.79588 -0.591442 68 73 65
0.465404 1.79588 -0.59144 54 52 52
0.467751 1.79588 -0.591442 32 24 32
0.462587 1.76867 -0.582479 2 1 1
0.465404 1.79588 -0.592218 57 53 55
0.467751 1.79588 -0.59222 24 19 25
0.462587 1.76867 -0.583246 2 1 2
0.457968 1.76867 -0.584779 58 58 61
0.467751 1.79588 -0.593777 27 24 22
0.462587 1.76867 -0.584779 1 0 1
0.465404 1.79588 -0.594553 52 52 53
0.467751 1.79588 -0.594555 25 23 18
0.462587 1.76867 -0.585545 1 0 1
0.467751 1.79588 -0.596111 30 24 14
0.462587 1.76867 -0.587078 3 3 0
0.467751 1.79588 -0.597668 31 24 17
0.462587 1.76867 -0.588611 6 2 0
0.467751 1.79588 -0.598446 30 23 16
0.462587 1.76867 -0.589377 4 1 0
0.467751 1.79588 -0.599224 33 26 18
0.462587 1.76867 -0.590144 6 2 0
0.467751 1.79588 -0.600002 35 28 21
0.462587 1.76867 -0.59091 3 1 0
-0.119272 2.53765 -0.850024 76 84 95
0.467751 1.79588 -0.601559 32 24 21
0.462587 1.76867 -0.592443 1 1 0
0.462587 1.76867 -0.593209 1 1 0
0.466965 1.79587 -0.603889 55 53 54
0.461816 1.76867 -0.600873 2 1 0
0.462587 1.76867 -0.6208 1 0 1
0.461816 1.76867 -0.621566 9 1 1
0.461816 1.76867 -0.624632 4 1 1
0.466965 1.79587 -0.636573 43 37 30
0.466965 1.79587 -0.637352 40 33 23
0.469313 1.79588 -0.637355 4 1 0
0.466965 1.79587 -0.63813 37 32 18
0.464623 1.79588 -0.639689 62 57 54
0.466965 1.79587 -0.639686 33 31 24
0.464623 1.79588 -0.640467 56 53 49
0.466965 1.79587 -0.640464 36 33 28
0.461816 1.76867 -0.630763 3 1 2
0.464623 1.79588 -0.642802 61 60 53
0.466965 1.79587 -0.642799 37 34 29
0.461816 1.76867 -0.633063 5 1 1
0.466965 1.79587 -0.644356 26 22 14
0.461816 1.76867 -0.634596 5 2 1
0.466965 1.79587 -0.64669 30 28 23
0.461816 1.76867 -0.636895 2 1 0
0.466965 1.79587 -0.647469 24 23 17
0.461816 1.76867 -0.637661 4 1 0
0.461816 1.76867 -0.63996 5 3 2
0.466965 1.79587 -0.650581 34 29 22
0.461816 1.76867 -0.640727 6 5 2
0.461816 1.76867 -0.643026 2 1 1
-0.79637 2.28887 -0.833145 110 106 110
0.464668 2.28886 -0.833143 118 118 118
0.466965 1.79587 -0.653694 28 26 21
0.461816 1.76867 -0.643792 3 1 2
-0.79637 2.28887 -0.834137 110 106 109
0.461816 1.76867 -0.644559 4 1 2
0.461816 1.76867 -0.646858 2 0 1
0.465989 2.24484 -0.826847 98 83 64
0.465014 2.24485 -0.828795 119 112 101
0.477617 2.28886 -0.845045 83 74 51
0.470873 2.24484 -0.828792 77 61 32
0.466965 1.79587 -0.663033 31 19 14
0.475624 2.28886 -0.846036 116 113 101
0.46892 2.24484 -0.829766 80 70 43
0.466965 1.79587 -0.663811 29 17 13
0.461816 1.76867 -0.653756 1 0 1
0.476621 2.28886 -0.847029 104 104 92
0.469898 2.24485 -0.830741 91 76 47
0.482598 2.28886 -0.847029 78 60 25
0.461816 1.76867 -0.654522 2 1 2
0.46892 2.24484 -0.831712 94 86 65
0.481602 2.28887 -0.848022 85 62 32
0.466965 1.79587 -0.665367 28 21 14
0.461816 1.76867 -0.655289 1 0 1
0.478615 2.28887 -0.849016 102 94 74
