ply
format ascii 1.0
element vertex 1334
property float x
property float y
property float z
property uchar red
property uchar green
property uchar blue
end_header
0.714579 3.89105 1.16174 84 49 37
0.721354 3.89106 1.16174 20 2 0
0.728132 3.89108 1.16175 55 10 0
-0.850621 2.59404 0.773373 49 48 51
-0.847233 2.59404 0.773372 5 3 9
-0.711204 3.07189 0.915838 215 227 240
-0.751844 3.89106 1.16006 132 92 15
0.707807 3.89106 1.16006 75 22 0
0.723043 3.89103 1.16005 23 2 0
0.728132 3.89108 1.16007 54 11 0
-0.850621 2.59404 0.772249 49 47 51
-0.751844 3.89106 1.15837 129 90 13
0.707807 3.89106 1.15837 80 28 0
0.714579 3.89105 1.15837 71 37 26
0.723043 3.89103 1.15837 19 2 0
0.728132 3.89108 1.15838 54 13 0
0.783491 2.99313 0.891059 91 40 0
-0.850621 2.59404 0.771125 51 50 53
-0.847233 2.59404 0.771124 6 5 11
-0.71521 3.07187 0.913169 172 194 213
-0.750145 3.89103 1.15668 104 70 0
0.211661 3.89104 1.15668 39 13 0
0.267542 3.89107 1.15669 166 107 46
0.707807 3.89106 1.15669 77 29 0
0.723043 3.89103 1.15668 20 3 0
0.728132 3.89108 1.15669 52 16 0
0.783491 2.99313 0.889762 94 45 0
0.737611 2.33463 0.694011 171 170 184
-0.850621 2.59404 0.768877 51 49 54
-0.716551 3.07189 0.910513 177 193 216
-0.751844 3.89106 1.15332 132 92 14
0.726436 3.89107 1.15332 47 18 0
0.731516 3.89107 1.15332 86 47 0
0.783491 2.99313 0.887168 87 43 0
0.738629 2.33464 0.69199 176 167 182
-0.850621 2.59404 0.767753 54 52 59
-0.751844 3.89106 1.15163 130 90 11
0.211661 3.89104 1.15162 36 19 0
0.726436 3.89107 1.15163 52 24 0
-0.850621 2.59404 0.766629 54 51 59
-0.850621 2.59404 0.763257 53 52 55
0.216744 3.89109 1.14489 105 68 1
-0.850621 2.59404 0.761008 47 48 45
0.209968 3.89104 1.14151 45 9 0
0.215049 3.89106 1.14151 83 48 0
0.704417 3.89103 1.1415 84 43 0
0.215049 3.89106 1.13983 80 45 0
-0.850621 2.59404 0.75876 51 51 50
0.209968 3.89104 1.13813 42 13 2
0.215049 3.89106 1.13814 83 50 0
0.706116 3.89106 1.13814 85 38 2
-0.850621 2.59404 0.757636 56 57 58
-0.847233 2.59404 0.757635 1 5 7
0.211661 3.89104 1.13645 53 24 2
0.216744 3.89109 1.13646 96 65 0
0.701039 3.89108 1.13646 40 9 0
0.706116 3.89106 1.13646 75 28 0
0.779583 2.99313 0.874199 146 84 29
0.783491 2.99313 0.874198 77 37 0
-0.850621 2.59404 0.756512 54 54 57
-0.847233 2.59404 0.756511 1 3 4
0.209968 3.89104 1.13476 39 14 3
0.215049 3.89106 1.13477 85 53 6
0.697646 3.89105 1.13476 36 13 0
0.702731 3.89108 1.13477 55 19 0
0.707807 3.89106 1.13477 85 38 3
0.779583 2.99313 0.872902 147 88 31
0.783491 2.99313 0.872901 77 40 0
0.787395 2.99312 0.872898 142 85 2
0.215049 3.89106 1.1314 90 51 2
0.699346 3.89108 1.1314 60 25 0
0.704417 3.89103 1.13139 100 52 5
0.711196 3.89107 1.1314 47 12 0
0.779583 2.99313 0.870308 147 83 21
0.783491 2.99313 0.870307 84 38 0
0.209968 3.89104 1.1297 42 16 4
0.215049 3.89106 1.12971 90 48 0
0.701039 3.89108 1.12972 73 27 0
0.706116 3.89106 1.12971 112 62 14
0.711196 3.89107 1.12971 52 16 0
0.779583 2.99313 0.869011 150 83 22
0.783491 2.99313 0.86901 93 40 0
-0.850621 2.59404 0.752016 46 42 45
0.209968 3.89104 1.12802 45 18 3
0.215049 3.89106 1.12802 83 44 0
0.704417 3.89103 1.12802 115 70 2
0.711196 3.89107 1.12803 51 13 0
0.779583 2.99313 0.867714 150 82 21
0.783491 2.99313 0.867713 93 39 0
0.783491 2.99313 0.863822 92 37 0
0.784796 2.99315 0.862529 92 48 0
-0.850621 2.59404 0.743023 55 52 50
-0.850621 2.59404 0.738527 51 49 55
0.784796 2.99315 0.852153 88 38 0
-0.850621 2.59404 0.737402 51 51 54
-0.847233 2.59404 0.737401 6 5 9
0.784796 2.99315 0.850855 79 32 0
-0.847233 2.59404 0.734029 10 6 7
0.784796 2.99315 0.846964 95 42 0
-0.849494 2.59405 0.732908 44 47 49
-0.846103 2.59403 0.732904 11 3 3
-0.737903 2.99311 0.845658 28 38 42
-0.733998 2.99312 0.84566 103 105 108
0.784796 2.99315 0.845667 95 38 0
0.788701 2.99313 0.845664 150 92 4
-0.736601 2.99311 0.843064 43 46 48
-0.736601 2.99311 0.841767 41 42 46
-0.850621 2.59404 0.72841 51 53 54
-0.847233 2.59404 0.728409 7 5 8
-0.737903 2.99311 0.84047 42 41 43
-0.733998 2.99312 0.840472 102 106 113
-0.850621 2.59404 0.725038 51 49 54
-0.847233 2.59404 0.725037 5 5 8
-0.736601 2.99311 0.836579 46 44 49
-0.732695 2.99312 0.836581 92 98 108
-0.850621 2.59404 0.723914 51 49 54
-0.847233 2.59404 0.723913 4 4 8
-0.736601 2.99311 0.835282 45 44 47
-0.732695 2.99312 0.835284 102 109 119
0.711196 3.89107 1.08587 69 21 0
-0.850621 2.59404 0.722789 53 54 59
-0.736601 2.99311 0.833985 42 42 43
-0.736601 2.99311 0.832688 41 41 41
-0.849494 2.59405 0.719419 43 43 46
-0.736601 2.99311 0.830094 45 46 49
0.712888 3.89106 1.07913 61 16 0
0.717966 3.89105 1.07912 98 56 1
-0.736601 2.99311 0.8275 42 38 39
0.714579 3.89105 1.07406 68 23 0
-0.847233 2.59404 0.713796 3 7 10
-0.737903 2.99311 0.823609 35 30 36
-0.733998 2.99312 0.823611 106 103 106
-0.72209 3.3352 0.917741 50 41 22
0.213356 3.89107 1.0707 73 43 0
0.218434 3.89104 1.07069 102 72 3
0.714579 3.89105 1.07069 64 20 0
-0.732695 2.99312 0.822314 117 117 123
0.220129 3.89106 1.06901 139 104 36
0.78609 2.99311 0.822312 90 42 0
-0.847233 2.59404 0.711548 4 6 9
-0.720495 2.84711 0.780967 184 205 222
-0.716778 2.84712 0.780968 154 181 198
-0.732695 2.99312 0.821017 115 117 123
0.213356 3.89107 1.06732 69 38 0
0.218434 3.89104 1.06732 97 67 3
0.714579 3.89105 1.06732 66 18 0
0.79 2.99312 0.821017 131 78 0
-0.847233 2.59404 0.710424 7 5 8
-0.733998 2.99312 0.81972 110 105 113
-0.730089 2.99312 0.81972 15 17 21
0.213356 3.89107 1.06564 68 40 0
0.218434 3.89104 1.06563 108 76 4
0.78609 2.99311 0.819718 87 40 0
0.79 2.99312 0.81972 130 83 0
-0.736601 2.99311 0.818421 56 44 54
-0.732695 2.99312 0.818423 106 108 113
0.78609 2.99311 0.818421 78 34 0
-0.850621 2.59404 0.708176 44 40 41
-0.847233 2.59404 0.708175 3 3 2
-0.737903 2.99311 0.817124 35 31 38
-0.733998 2.99312 0.817126 106 103 111
-0.730089 2.99312 0.817126 20 25 29
0.213356 3.89107 1.06227 75 42 0
0.218434 3.89104 1.06226 112 69 2
0.78609 2.99311 0.817123 77 34 0
-0.847233 2.59404 0.707051 2 2 2
-0.736601 2.99311 0.815827 50 47 54
-0.732695 2.99312 0.815829 103 104 111
0.357288 3.89106 1.06058 107 60 10
0.784796 2.99315 0.815835 81 35 0
-0.736601 2.99311 0.81453 49 46 53
-0.732695 2.99312 0.814532 104 105 112
0.787395 2.99312 0.814532 86 41 0
-0.736601 2.99311 0.811936 43 42 44
-0.732695 2.99312 0.811938 107 109 112
0.787395 2.99312 0.811938 91 50 0
-0.737903 2.99311 0.810639 35 32 39
-0.733998 2.99312 0.810641 111 104 107
-0.730089 2.99312 0.81064 20 28 35
-0.710554 2.99313 0.810644 35 41 49
-0.756928 3.89108 1.05384 170 119 60
0.78609 2.99311 0.810638 81 42 0
-0.736601 2.99311 0.808045 41 34 38
-0.755237 3.89109 1.05047 171 123 62
-0.736601 2.99311 0.806748 50 40 45
-0.756928 3.89108 1.04878 161 113 42
-0.732695 2.99312 0.805452 108 105 112
-0.755237 3.89109 1.0471 171 124 49
-0.736601 2.99311 0.804154 57 45 51
-0.732695 2.99312 0.804155 105 102 108
-0.756928 3.89108 1.04541 166 125 38
-0.733998 2.99312 0.800265 119 115 119
-0.737903 2.99311 0.792481 31 36 29
-0.733998 2.99312 0.792482 113 114 114
-0.736601 2.99311 0.789887 35 46 43
-0.736601 2.99311 0.78859 42 49 46
-0.736601 2.99311 0.784698 48 48 49
0.716269 3.89103 1.0201 70 33 0
0.787395 2.99312 0.7847 85 39 0
-0.736601 2.99311 0.783402 53 53 54
-0.847233 2.59404 0.672205 1 6 5
-0.84836 2.59403 0.669955 3 13 15
-0.705344 2.99313 0.77303 218 205 230
-0.847233 2.59404 0.667709 5 3 4
-0.725971 2.7147 0.698766 90 83 86
-0.706645 2.99313 0.770435 220 191 208
-0.702736 2.99312 0.770433 210 206 232
0.714579 3.89105 1.00156 84 32 0
0.719657 3.89104 1.00156 106 58 2
-0.851749 2.59404 0.666585 53 43 40
-0.847233 2.59404 0.666584 5 2 5
-0.722428 2.7147 0.697591 53 49 40
-0.705344 2.99313 0.769139 212 168 194
-0.756928 3.89108 0.999882 171 124 42
-0.751844 3.89106 0.999878 135 94 5
0.712888 3.89106 0.999878 109 45 0
0.717966 3.89105 0.999875 84 41 0
-0.706645 2.99313 0.767841 221 178 195
-0.847233 2.59404 0.664336 5 4 9
-0.709249 2.99312 0.766542 112 96 101
-0.705344 2.99313 0.766545 221 178 204
-0.756928 3.89108 0.99651 173 123 37
-0.751844 3.89106 0.996506 148 106 29
0.716269 3.89103 0.996497 75 27 0
0.721354 3.89106 0.996504 106 60 5
0.712888 3.89106 0.99482 105 48 0
0.717966 3.89105 0.994817 84 33 1
-1.37161 2.65301 0.677139 14 23 0
-1.36814 2.653 0.677139 27 44 0
-0.850621 2.59404 0.662089 59 50 51
-0.847233 2.59404 0.662088 6 3 7
-0.723606 2.71469 0.692882 82 82 80
-0.756928 3.89108 0.993138 178 124 40
-0.751844 3.89106 0.993134 139 96 14
-0.74386 4.16899 1.06407 60 19 0
0.714579 3.89105 0.993129 79 26 0
0.719657 3.89104 0.993127 97 52 2
-1.37045 2.65301 0.674839 6 21 0
-0.709249 2.99312 0.761354 87 89 94
-0.705344 2.99313 0.761357 202 211 233
-0.750145 3.89103 0.989753 111 69 0
-0.745676 4.16899 1.06046 55 17 0
0.195938 4.16901 1.06046 106 96 85
0.203196 4.16901 1.06046 76 48 6
0.712888 3.89106 0.989761 108 52 1
0.717966 3.89105 0.989759 77 31 0
-0.709249 2.99312 0.760057 81 82 85
-0.74386 4.16899 1.05865 59 18 0
0.195938 4.16901 1.05865 98 91 79
0.201382 4.16902 1.05866 85 57 7
0.712888 3.89106 0.988075 110 56 2
0.717966 3.89105 0.988072 80 35 0
-0.843847 2.59404 0.657592 45 43 41
-0.745676 4.16899 1.05684 46 23 0
0.195938 4.16901 1.05685 97 93 81
0.203196 4.16901 1.05685 82 47 8
0.712888 3.89106 0.986389 110 53 1
0.717966 3.89105 0.986386 78 36 0
-0.733998 2.99312 0.757463 152 138 141
-0.751127 4.16904 1.05505 77 55 21
-0.745676 4.16899 1.05504 38 22 0
-0.740238 4.16902 1.05505 65 38 5
0.195938 4.16901 1.05504 98 96 85
0.203196 4.16901 1.05504 85 49 16
-0.733998 2.99312 0.756166 148 135 139
-0.738415 4.16897 1.05323 76 56 20
0.195938 4.16901 1.05324 105 98 89
0.203196 4.16901 1.05324 76 40 14
0.714579 3.89105 0.983013 86 26 0
-0.847233 2.59404 0.653095 4 4 4
-0.712305 2.53764 0.638896 131 149 184
-0.708995 2.53765 0.638899 172 183 201
-0.737903 2.99311 0.75357 56 55 52
-0.733998 2.99312 0.753572 155 146 144
-0.730089 2.99312 0.753572 32 43 40
-0.738415 4.16897 1.04961 71 54 13
0.717966 3.89105 0.979642 84 37 0
-0.847233 2.59404 0.651971 4 6 2
-0.712305 2.53764 0.637797 137 152 186
-0.707891 2.53765 0.6378 168 179 196
-0.735299 2.99312 0.752274 115 107 96
-0.731398 2.99315 0.752281 82 89 86
0.205009 4.16899 1.04781 69 46 2
-0.710098 2.53765 0.636699 136 143 179
-0.706782 2.53764 0.636696 167 179 196
-0.736601 2.99311 0.750976 80 75 66
-0.732695 2.99312 0.750978 139 139 136
0.716269 3.89103 0.976264 75 31 0
-0.710098 2.53765 0.635599 149 152 191
-0.736601 2.99311 0.749679 86 78 66
-0.732695 2.99312 0.749681 141 139 136
0.716269 3.89103 0.974578 76 31 0
-0.731398 2.99315 0.74839 85 91 91
-0.718466 4.16902 1.0424 85 85 83
0.717966 3.89105 0.972897 85 39 0
-0.847233 2.59404 0.646351 9 8 14
-0.736601 2.99311 0.745788 89 84 71
-0.732695 2.99312 0.745789 145 144 143
-0.718466 4.16902 1.03879 84 87 80
0.203196 4.16901 1.03878 92 52 3
0.716269 3.89103 0.969519 74 19 0
-0.736601 2.99311 0.744491 92 87 78
-0.732695 2.99312 0.744493 138 141 138
-0.718466 4.16902 1.03698 81 83 76
0.205009 4.16899 1.03697 85 51 0
0.717966 3.89105 0.967839 72 29 0
-0.736601 2.99311 0.743194 97 90 81
-0.732695 2.99312 0.743195 147 149 148
-0.718466 4.16902 1.03517 84 86 80
-0.713016 4.16898 1.03516 37 37 39
0.203196 4.16901 1.03517 104 65 11
0.717966 3.89105 0.966153 70 28 0
-0.735299 2.99312 0.740601 134 121 105
0.208638 4.169 1.03156 99 69 42
-0.735299 2.99312 0.739304 142 127 112
-0.711206 4.169 1.02975 36 35 41
0.206825 4.16902 1.02975 77 53 19
0.212267 4.16901 1.02975 106 81 43
0.716269 3.89103 0.961089 81 26 0
0.721354 3.89106 0.961096 97 55 1
0.79 2.99312 0.739304 93 39 0
-0.733998 2.99312 0.738007 158 147 144
0.206825 4.16902 1.02795 74 59 21
0.206825 4.16902 1.02253 86 58 12
-0.736601 2.99311 0.714659 131 120 117
-0.732695 2.99312 0.714661 164 165 168
-0.737903 2.99311 0.712066 107 98 97
-0.733998 2.99312 0.712067 181 178 180
-0.735299 2.99312 0.710769 161 151 150
-0.731398 2.99315 0.710776 100 103 104
-0.718466 4.16902 0.990008 49 44 49
0.203196 4.16901 0.990005 114 79 6
0.210454 4.16902 0.990009 113 77 44
-0.736601 2.99311 0.709472 136 126 121
-0.732695 2.99312 0.709473 151 151 148
-0.735299 2.99312 0.706878 172 163 160
-0.731398 2.99315 0.706885 99 99 99
-0.723904 4.16899 0.984582 97 96 91
-0.718466 4.16902 0.984589 54 50 53
-0.713016 4.16898 0.984579 21 31 48
0.206825 4.16902 0.984588 98 64 16
0.212267 4.16901 0.984585 125 94 52
-0.733998 2.99312 0.705582 185 182 180
-0.729342 4.16896 0.982768 128 131 128
-0.723904 4.16899 0.982776 101 99 94
-0.718466 4.16902 0.982782 54 50 51
0.205009 4.16899 0.982776 120 73 23
0.210454 4.16902 0.982783 116 85 45
-0.722094 4.16902 0.979168 87 85 80
-0.716647 4.16899 0.979162 49 51 57
-0.729342 4.16896 0.964703 142 142 141
-0.723904 4.16899 0.96471 118 119 115
-0.733998 2.99312 0.680939 176 168 166
-0.714836 4.16901 0.946649 50 52 55
-0.718466 4.16902 0.943038 72 74 72
0.692773 2.28887 0.517745 152 157 166
-0.728989 2.91832 0.658863 147 132 161
-0.733998 2.99312 0.675751 170 163 156
-0.720276 4.169 0.941226 91 95 95
-0.714836 4.16901 0.94123 32 42 44
0.688786 2.28886 0.516752 183 178 184
0.691777 2.28887 0.516754 158 159 167
0.697752 2.28887 0.516753 126 124 134
0.700739 2.28886 0.516752 156 158 179
-0.728989 2.91832 0.657598 134 121 158
-0.733998 2.99312 0.674453 170 163 160
-0.722094 4.16902 0.939424 103 104 106
-0.716647 4.16899 0.939418 47 55 52
0.689786 2.28888 0.515763 164 159 169
0.693768 2.28887 0.515761 136 141 151
0.699745 2.28887 0.515761 155 154 175
-0.732695 2.99312 0.671859 183 182 185
-0.718466 4.16902 0.935811 73 77 75
-0.713016 4.16898 0.935802 37 47 57
0.687789 2.28886 0.513775 168 165 171
0.690777 2.28886 0.513776 156 150 162
0.694759 2.28885 0.513773 126 123 134
-0.728989 2.91832 0.653804 116 105 141
-0.737903 2.99311 0.670561 59 47 43
-0.733998 2.99312 0.670563 172 165 161
-0.730089 2.99312 0.670562 70 71 75
-0.711855 2.99313 0.670563 52 55 61
-0.711206 4.169 0.934 17 37 55
0.687789 2.28886 0.512783 160 159 167
0.690777 2.28886 0.512784 149 144 156
0.693768 2.28887 0.512785 126 124 133
0.696753 2.28886 0.512783 143 147 164
-0.714836 4.16901 0.93039 36 44 51
0.694759 2.28885 0.510798 148 151 165
-0.733998 2.99312 0.666671 176 161 156
0.693768 2.28887 0.50981 147 151 163
-0.733998 2.99312 0.665375 176 165 159
0.777235 2.91829 0.64874 47 21 2
0.781046 2.9183 0.648741 125 76 8
0.689786 2.28888 0.50882 118 119 124
0.692773 2.28887 0.508819 144 149 162
-0.731398 2.99315 0.662786 150 150 153
0.777235 2.91829 0.646211 47 20 0
0.782318 2.91831 0.646214 133 81 1
0.692773 2.28887 0.506835 174 184 204
0.695759 2.28886 0.506833 142 156 173
0.774694 2.91829 0.643681 11 3 0
0.778507 2.9183 0.643683 67 40 0
0.782318 2.91831 0.643684 138 86 0
0.690777 2.28886 0.504849 179 186 205
0.693768 2.28887 0.504851 149 157 171
0.774694 2.91829 0.642417 19 4 0
0.692773 2.28887 0.50386 153 156 172
0.695759 2.28886 0.503858 126 128 142
0.774694 2.91829 0.641152 28 8 1
0.691777 2.28887 0.502868 161 160 174
0.774694 2.91829 0.639887 29 8 1
0.778507 2.9183 0.639889 59 28 0
0.782318 2.91831 0.639891 142 84 5
0.707135 2.33465 0.511913 124 124 137
0.708149 2.33464 0.5109 123 118 140
-0.731398 2.99315 0.652409 148 145 142
-0.704038 2.99312 0.652404 5 5 21
-0.715583 4.02523 0.877371 99 100 95
0.216744 3.89109 0.848132 94 71 47
0.221821 3.89105 0.848124 115 93 55
0.708149 2.33464 0.508876 152 145 175
-0.731398 2.99315 0.649816 158 157 157
0.215049 3.89106 0.844754 85 64 33
0.220129 3.89106 0.844755 109 80 42
0.22521 3.89109 0.844761 150 110 45
0.216744 3.89109 0.843074 92 69 32
-0.735299 2.99312 0.644621 139 121 116
-0.731398 2.99315 0.644627 160 157 159
0.218434 3.89104 0.838005 108 71 39
-1.03124 2.59404 0.54968 87 83 96
-1.02786 2.59404 0.549681 40 12 24
-1.02447 2.59404 0.54968 109 27 39
-0.735299 2.99312 0.634245 125 106 102
-0.750145 3.89103 0.824514 144 88 18
0.216744 3.89109 0.824526 76 51 15
-1.02786 2.59404 0.547432 31 17 19
-1.02673 2.59404 0.546309 49 4 5
-1.02898 2.59403 0.531694 29 10 21
-1.02447 2.59404 0.531694 94 14 9
-0.716278 3.89103 0.797536 176 189 203
-0.704425 3.89103 0.797536 181 190 200
-0.714588 3.89105 0.795853 173 187 206
-0.712896 3.89106 0.792483 169 182 200
-0.731398 2.99315 0.608311 156 151 154
-0.712896 3.89106 0.790797 167 180 199
-0.707817 3.89106 0.790798 144 148 155
-0.716647 4.16899 0.847283 26 36 44
-0.714588 3.89105 0.787423 171 184 204
-0.716647 4.16899 0.84367 21 40 59
-0.718466 4.16902 0.840062 23 41 55
-0.718466 4.16902 0.838256 30 40 55
-0.745066 3.89103 0.775618 90 44 14
-0.712896 3.89106 0.775622 158 176 190
-0.70274 3.89108 0.775626 188 187 201
-0.70274 3.89108 0.770567 178 184 195
-0.743379 3.89107 0.768881 79 36 0
-0.738304 3.8911 0.768885 32 4 0
-0.726445 3.89106 0.768879 75 57 39
-0.721363 3.89105 0.768877 101 94 84
-0.70274 3.89108 0.768881 180 185 197
-0.70274 3.89108 0.763823 182 185 193
-0.746767 3.89107 0.762136 98 58 5
-0.743379 3.89107 0.755392 79 38 4
-0.972539 2.59404 0.482234 149 139 118
-0.842717 2.59404 0.477738 57 51 50
-0.723298 2.77933 0.511863 46 37 43
-0.699355 3.89108 0.716613 187 188 197
-0.723298 2.77933 0.510659 37 29 37
-0.706125 3.89107 0.714923 136 137 145
-0.843847 2.59404 0.474366 47 39 42
-0.701047 3.89108 0.711553 169 171 176
0.773951 3.4333 0.62784 49 21 12
0.779925 3.43329 0.627838 7 4 0
-0.843847 2.59404 0.473242 52 42 45
-0.701047 3.89108 0.709867 164 166 170
0.773951 3.4333 0.626353 57 30 22
0.779925 3.43329 0.62635 6 4 2
-0.701047 3.89108 0.708181 164 165 168
0.773951 3.4333 0.624865 56 29 21
0.773951 3.4333 0.621889 46 23 5
-0.843847 2.59404 0.468746 56 48 49
-0.733777 3.24253 0.58593 157 72 82
-0.739991 3.89106 0.70312 51 17 0
0.775446 3.4333 0.617427 18 2 0
-0.972539 2.59404 0.464249 147 136 97
0.775446 3.4333 0.614451 55 18 5
-0.714588 3.89105 0.686255 173 183 203
0.751345 3.76555 0.664122 38 8 0
0.756257 3.76553 0.664118 74 27 1
-0.714588 3.89105 0.682883 170 182 201
-0.699355 3.89108 0.682889 165 165 172
0.296331 3.8911 0.682892 127 80 42
-0.711205 3.89107 0.681201 159 173 188
-0.706125 3.89107 0.681201 152 158 166
-0.701047 3.89108 0.681203 117 119 120
-0.711206 4.169 0.729858 0 1 11
-0.716647 4.16899 0.724437 68 88 109
-0.741685 3.89106 0.674456 81 28 7
-0.714836 4.16901 0.722634 54 74 97
-0.9827 2.59404 0.418162 50 44 44
-0.9827 2.59404 0.417038 54 43 44
0.657676 2.0845 0.335121 75 70 72
0.657676 2.0845 0.333314 83 73 69
-0.980442 2.59404 0.406921 7 3 0
0.215049 3.89106 0.610382 172 179 187
0.220129 3.89106 0.610383 134 129 133
0.22521 3.89109 0.610387 109 78 54
0.745057 3.89104 0.610379 59 26 0
0.782916 3.4333 0.538575 56 21 0
0.654167 2.20249 0.3455 25 28 20
-0.980442 2.59404 0.405797 10 4 1
-0.977054 2.59404 0.405797 42 37 40
-0.672072 3.15491 0.493536 108 17 11
0.209968 3.89104 0.608693 164 176 181
0.215049 3.89106 0.608696 161 163 169
0.220129 3.89106 0.608697 108 103 105
0.22521 3.89109 0.608701 108 74 47
0.654167 2.20249 0.344545 30 30 25
0.657044 2.20249 0.344546 56 52 57
0.659918 2.20249 0.344545 106 114 118
-0.984961 2.59405 0.404675 11 5 4
-0.980442 2.59404 0.404673 2 2 0
-0.977054 2.59404 0.404673 43 38 37
-0.709794 3.24256 0.505843 230 98 118
-0.676197 3.15493 0.492174 115 15 24
-0.672072 3.15491 0.492169 101 9 6
-0.667955 3.15492 0.492171 185 70 74
-0.713016 4.16898 0.650366 46 66 83
-0.707574 4.16898 0.650367 1 4 21
0.209968 3.89104 0.607007 160 169 173
0.215049 3.89106 0.60701 146 145 151
0.220129 3.89106 0.607011 89 76 78
0.22521 3.89109 0.607015 107 73 48
0.721354 3.89106 0.607009 82 42 0
0.654167 2.20249 0.343591 28 27 25
0.657044 2.20249 0.343592 48 47 53
0.659918 2.20249 0.343591 98 108 111
-0.983827 2.59403 0.403548 53 45 42
-0.980442 2.59404 0.403549 1 2 0
-0.977054 2.59404 0.403549 33 31 28
-0.711206 4.169 0.648563 24 33 47
0.216744 3.89109 0.605328 122 117 123
0.221821 3.89105 0.605322 75 47 39
0.654167 2.20249 0.342637 33 28 30
0.657044 2.20249 0.342637 52 51 58
0.659918 2.20249 0.342637 102 110 116
0.656771 2.08451 0.324282 72 58 53
-0.978182 2.59403 0.402424 26 26 23
-0.974794 2.59403 0.402423 7 6 1
0.218434 3.89104 0.603635 99 81 80
0.657044 2.20249 0.341683 52 52 59
-0.9827 2.59404 0.401301 40 36 35
-0.977054 2.59404 0.4013 45 45 42
-0.673444 3.1549 0.488067 97 7 9
-0.666581 3.15491 0.488068 162 52 55
-0.706125 3.89107 0.601952 147 160 173
-0.716647 4.16899 0.644948 73 94 113
-0.711206 4.169 0.644949 9 29 44
0.216744 3.89109 0.601955 123 108 105
0.221821 3.89105 0.60195 68 40 27
0.657044 2.20249 0.340728 48 46 52
0.657676 2.0845 0.322474 93 76 69
-0.984961 2.59405 0.400178 35 29 21
-0.980442 2.59404 0.400177 11 9 8
-0.977054 2.59404 0.400176 40 40 39
-0.673444 3.1549 0.4867 96 8 11
-0.706125 3.89107 0.600266 139 154 167
-0.716647 4.16899 0.643141 73 95 114
0.221821 3.89105 0.600264 78 52 37
0.657044 2.20249 0.339774 47 45 51
0.659918 2.20249 0.339773 104 103 112
0.716269 3.89103 0.595202 25 8 0
-0.663838 3.15492 0.477133 204 92 110
-0.753078 3.15491 0.474397 74 29 24
-0.748961 3.15492 0.474398 121 54 52
-0.667955 3.15492 0.474398 117 23 20
0.209968 3.89104 0.585087 166 175 183
-0.842717 2.59404 0.388936 52 54 58
-0.753078 3.15491 0.47303 71 25 21
-0.748961 3.15492 0.473031 117 50 48
-0.665212 3.15493 0.473033 181 80 87
-0.661093 3.15493 0.473033 163 56 72
-0.842717 2.59404 0.387812 55 53 59
-0.718879 2.71468 0.405848 102 28 37
-0.715337 2.71469 0.40585 143 38 47
-0.753078 3.15491 0.471663 79 28 26
-0.748961 3.15492 0.471664 110 44 38
-0.670698 3.1549 0.471661 91 5 10
-0.665212 3.15493 0.471666 182 81 86
-0.661093 3.15493 0.471666 160 55 65
-0.708578 4.02525 0.601779 124 135 157
0.209968 3.89104 0.581715 171 178 188
0.22521 3.89109 0.581723 101 83 58
0.369144 3.89108 0.581722 100 48 14
-0.847233 2.59404 0.386688 3 5 4
-0.842717 2.59404 0.386687 56 50 57
-0.718879 2.71468 0.404672 107 29 33
-0.747587 3.15492 0.470296 127 55 49
-0.667955 3.15492 0.470297 116 25 24
-0.708578 4.02525 0.600035 123 134 154
0.215049 3.89106 0.580032 156 163 169
0.22521 3.89109 0.580036 101 88 60
0.369144 3.89108 0.580035 101 50 19
0.657676 2.0845 0.310732 75 60 47
-0.847233 2.59404 0.385563 2 3 3
-0.720067 2.71471 0.403499 84 36 44
-0.716521 2.7147 0.403498 154 36 40
-0.751706 3.15492 0.468929 75 26 19
-0.747587 3.15492 0.468929 124 49 43
-0.665212 3.15493 0.468931 183 77 87
0.204888 3.89105 0.578344 134 155 166
0.209968 3.89104 0.578343 176 184 195
0.369144 3.89108 0.578349 96 47 23
-0.847233 2.59404 0.384439 2 4 3
-0.720067 2.71471 0.402323 77 30 41
-0.716521 2.7147 0.402322 150 39 43
-0.751706 3.15492 0.467562 77 25 18
-0.747587 3.15492 0.467562 126 49 49
-0.709144 3.15491 0.467562 138 47 53
-0.672072 3.15491 0.467561 79 6 8
-0.667955 3.15492 0.467562 116 22 29
0.211661 3.89104 0.576656 178 186 194
0.216744 3.89109 0.576663 155 159 165
-0.847233 2.59404 0.383315 2 4 3
-0.747587 3.15492 0.466195 113 41 42
-0.674823 3.15493 0.466197 105 16 39
-0.670698 3.1549 0.466193 79 4 8
-0.632261 3.15493 0.466197 184 72 94
-0.622647 3.15492 0.466196 200 72 88
0.211661 3.89104 0.57497 177 184 194
0.657676 2.0845 0.308022 75 56 51
-0.847233 2.59404 0.382191 10 10 7
-0.842717 2.59404 0.382191 57 57 55
-0.747587 3.15492 0.464828 119 53 51
-0.673444 3.1549 0.464826 93 7 25
-0.630886 3.15492 0.464829 160 46 62
-0.626768 3.15492 0.464829 169 51 59
0.211661 3.89104 0.573284 175 182 193
0.369144 3.89108 0.573291 109 59 35
0.657676 2.0845 0.307119 79 60 57
-0.989474 2.59404 0.379944 19 19 19
-0.748961 3.15492 0.462094 104 40 40
-0.716007 3.15491 0.462093 58 12 13
-0.71189 3.15492 0.462094 83 16 15
-0.673444 3.1549 0.462092 102 15 36
-0.669329 3.15492 0.462095 95 5 5
-0.635003 3.15492 0.462094 229 112 133
-0.630886 3.15492 0.462095 182 82 96
-0.626768 3.15492 0.462095 161 48 54
0.208277 3.89108 0.569918 184 189 200
-0.989474 2.59404 0.37882 17 17 16
-0.744841 3.15491 0.460726 135 64 68
-0.714634 3.15491 0.460725 52 5 7
-0.676197 3.15493 0.460729 213 106 133
-0.670698 3.1549 0.460724 88 2 11
0.208277 3.89108 0.568232 183 185 197
-0.667955 3.15492 0.457992 105 13 19
-0.669329 3.15492 0.456626 92 5 10
-0.674823 3.15493 0.45526 216 98 129
-0.669329 3.15492 0.455259 87 5 6
-0.709507 3.89104 0.561482 139 162 180
0.208277 3.89108 0.561488 144 144 157
-0.669329 3.15492 0.453892 81 4 1
-0.727713 2.9183 0.408467 114 73 81
-0.727713 2.9183 0.407203 105 65 75
-0.669329 3.15492 0.438854 71 2 6
-0.665212 3.15493 0.438855 123 36 35
-0.709507 3.89104 0.541249 149 162 182
0.207575 4.02525 0.559916 80 76 70
-0.669329 3.15492 0.437487 68 1 3
-0.665212 3.15493 0.437487 121 31 30
-0.709507 3.89104 0.539562 147 158 177
0.228595 3.89105 0.539564 97 71 15
-0.673444 3.1549 0.433382 195 102 127
-0.669329 3.15492 0.433385 73 4 2
-0.665212 3.15493 0.433386 101 18 10
-0.731158 4.16898 0.572683 61 93 115
0.221821 3.89105 0.534505 56 37 18
0.226901 3.89104 0.534503 89 63 28
0.231981 3.89105 0.534505 131 83 37
-0.669329 3.15492 0.432018 75 5 3
-0.665212 3.15493 0.432019 100 24 11
-0.727532 4.16899 0.570878 1 43 64
0.223514 3.89104 0.532817 61 34 10
0.228595 3.89105 0.532819 99 70 29
-0.670698 3.1549 0.42928 124 37 53
-0.666581 3.15491 0.429282 75 6 0
-0.729342 4.16896 0.567262 62 74 100
0.223514 3.89104 0.529445 70 43 12
0.233675 3.89106 0.529448 133 88 29
-0.673444 3.1549 0.427914 225 114 134
-0.669329 3.15492 0.427916 100 17 29
-0.665212 3.15493 0.427917 83 9 7
-0.729342 4.16896 0.565455 58 80 108
-0.723904 4.16899 0.565459 2 39 79
0.221821 3.89105 0.527761 52 31 4
0.226901 3.89104 0.527759 93 58 19
0.231981 3.89105 0.52776 116 78 13
-0.667955 3.15492 0.426548 84 2 15
-0.663838 3.15492 0.426549 107 22 26
-0.731158 4.16898 0.56365 67 93 116
-0.725722 4.16901 0.563655 18 48 86
0.221821 3.89105 0.526074 57 32 5
0.228595 3.89105 0.526075 101 64 21
0.221821 3.89105 0.524388 58 33 5
0.228595 3.89105 0.524389 96 62 21
0.22521 3.89109 0.522708 81 53 8
-0.669329 3.15492 0.422448 106 23 38
-0.727532 4.16899 0.558232 18 65 93
-0.714588 3.89105 0.507527 171 178 191
-0.658342 3.15491 0.400572 176 74 83
-0.717976 3.89105 0.494039 102 97 96
-0.729342 4.16896 0.529324 45 78 100
-0.659718 3.15492 0.399206 175 78 86
-0.729342 4.16896 0.527517 34 75 99
-0.710517 3.15491 0.396471 95 28 30
-0.659718 3.15492 0.396472 172 81 78
-0.714634 3.15491 0.395104 30 2 1
-0.710517 3.15491 0.395104 83 21 20
-0.663838 3.15492 0.395106 71 1 3
-0.709144 3.15491 0.39237 99 38 33
-0.717976 3.89105 0.483922 92 85 80
-0.714634 3.15491 0.391002 32 1 2
-0.717976 3.89105 0.482236 90 86 81
-0.712896 3.89106 0.482236 164 177 190
-0.723904 4.16899 0.516682 20 39 73
-0.714634 3.15491 0.389635 30 1 2
-0.710517 3.15491 0.389636 61 16 13
-0.717976 3.89105 0.48055 88 85 82
-0.712896 3.89106 0.48055 157 171 182
-0.714634 3.15491 0.386901 27 1 3
-0.717385 3.15493 0.385536 48 4 19
-0.713263 3.15491 0.385534 15 0 0
-0.661093 3.15493 0.385536 98 21 19
-0.656973 3.15492 0.385535 142 42 44
-0.717976 3.89105 0.475491 58 50 36
-0.712896 3.89106 0.475492 135 137 150
-0.725722 4.16901 0.509459 1 35 75
-0.714634 3.15491 0.380065 20 0 0
-0.662464 3.15492 0.380066 64 3 0
-0.662464 3.15492 0.378699 66 2 3
-0.718752 3.1549 0.375963 62 17 21
-0.672072 3.15491 0.375964 203 103 117
-0.667955 3.15492 0.375965 120 41 61
-0.656973 3.15492 0.375966 102 22 25
-0.661093 3.15493 0.371865 68 0 4
-0.65285 3.1549 0.366393 139 46 53
-0.710517 3.15491 0.336317 81 31 28
-0.706397 3.15491 0.336317 125 42 48
-0.70228 3.15492 0.336318 199 112 123
-0.714634 3.15491 0.333583 17 2 1
-0.710517 3.15491 0.333583 90 35 35
-0.706397 3.15491 0.333583 119 33 37
-0.663838 3.15492 0.333584 159 71 91
-0.729342 4.16896 0.440803 26 27 36
-1.05721 2.59404 0.272031 59 76 83
-0.713263 3.15491 0.330849 19 0 0
-0.709144 3.15491 0.330849 115 33 44
-0.705028 3.15493 0.330851 166 83 99
-0.696787 3.15491 0.330849 184 75 92
-0.647703 3.24255 0.340039 93 20 9
-0.643471 3.24255 0.340039 137 50 49
-0.639236 3.24255 0.340039 155 74 81
-0.731158 4.16898 0.437192 33 34 37
-0.725722 4.16901 0.437195 1 2 3
-0.713263 3.15491 0.329482 27 0 0
-0.705028 3.15493 0.329483 168 89 99
-0.700906 3.15491 0.329482 183 87 109
-0.696787 3.15491 0.329482 174 70 82
-0.666581 3.15491 0.329482 196 86 104
-0.647703 3.24255 0.338634 88 18 14
-0.639236 3.24255 0.338634 157 78 84
-0.635006 3.24256 0.338635 24 5 12
-0.736607 4.16901 0.435389 9 1 0
-0.731158 4.16898 0.435385 27 29 32
-0.725722 4.16901 0.435389 2 4 6
0.961805 3.89105 0.40636 58 56 49
-0.714634 3.15491 0.328114 32 1 1
-0.710517 3.15491 0.328115 87 25 25
-0.64206 3.24256 0.33723 141 52 60
-0.63783 3.24257 0.337231 139 77 83
-0.736607 4.16901 0.433582 3 0 0
-0.731158 4.16898 0.433578 23 28 34
-0.725722 4.16901 0.433582 2 3 11
-0.714634 3.15491 0.326747 35 1 1
-0.710517 3.15491 0.326748 88 32 27
-0.706397 3.15491 0.326747 133 55 56
-0.696787 3.15491 0.326748 162 59 71
-0.640649 3.24255 0.335824 144 55 63
-0.738415 4.16897 0.431772 17 2 0
-0.731158 4.16898 0.431772 18 35 44
-0.725722 4.16901 0.431776 6 10 28
0.239105 4.02523 0.416884 73 34 0
-0.841595 2.59406 0.267537 57 56 60
-0.714634 3.15491 0.32538 36 1 2
-0.710517 3.15491 0.32538 83 26 18
-0.706397 3.15491 0.32538 137 61 60
-0.698157 3.1549 0.325379 157 58 72
-0.694041 3.15491 0.32538 196 100 109
-0.640649 3.24255 0.334419 142 52 63
-0.636417 3.24257 0.33442 137 86 102
-0.74386 4.16899 0.429966 53 17 0
-0.738415 4.16897 0.429965 20 5 0
-0.727532 4.16899 0.429966 0 2 15
0.232099 4.02524 0.415141 109 81 37
-0.841595 2.59406 0.266413 58 57 60
-0.714634 3.15491 0.324013 36 2 2
-0.710517 3.15491 0.324013 86 26 19
-0.669329 3.15492 0.324014 195 98 105
-0.665212 3.15493 0.324015 136 51 72
-0.64206 3.24256 0.333014 142 51 62
-0.63783 3.24257 0.333016 158 75 92
-0.633594 3.24256 0.333014 29 8 18
-0.74386 4.16899 0.42816 44 15 0
-0.738415 4.16897 0.428158 18 8 0
-0.729342 4.16896 0.428157 0 15 30
-0.723904 4.16899 0.42816 36 43 65
0.179608 4.16896 0.428157 29 40 47
-0.841595 2.59406 0.264165 57 61 60
-0.714634 3.15491 0.321278 28 1 1
-0.710517 3.15491 0.321279 86 28 24
-0.705028 3.15493 0.321281 164 80 82
-0.643471 3.24255 0.330204 136 49 48
-0.749305 4.169 0.424548 69 40 0
-0.74386 4.16899 0.424547 39 15 0
-0.731158 4.16898 0.424545 19 46 53
-0.714634 3.15491 0.319911 23 0 0
-0.710517 3.15491 0.319912 71 17 14
-0.705028 3.15493 0.319913 168 81 86
-0.749305 4.169 0.422741 74 44 2
-0.74386 4.16899 0.42274 47 18 0
0.21408 4.16898 0.422739 92 65 31
0.219523 4.16899 0.42274 51 36 8
0.658582 2.08449 0.21137 30 39 44
0.661305 2.0845 0.211371 60 58 55
-0.713263 3.15491 0.318545 21 0 0
-0.709144 3.15491 0.318545 90 23 25
-0.705028 3.15493 0.318546 165 76 86
-0.640649 3.24255 0.327394 152 53 56
-0.749305 4.169 0.420935 72 41 4
-0.74386 4.16899 0.420934 44 13 0
-0.736607 4.16901 0.420936 10 1 0
-0.727532 4.16899 0.420934 1 13 32
0.219523 4.16899 0.420934 53 37 7
0.658582 2.08449 0.210467 33 41 47
0.661305 2.0845 0.210467 58 54 52
-0.713263 3.15491 0.317178 25 1 0
-0.709144 3.15491 0.317178 92 23 25
-0.749305 4.169 0.419128 80 45 18
-0.727532 4.16899 0.419127 5 21 42
0.215895 4.169 0.419129 82 56 25
-0.713263 3.15491 0.314444 24 0 0
-0.709144 3.15491 0.314443 103 40 36
-0.749305 4.169 0.415515 83 40 20
-0.74386 4.16899 0.415514 46 19 8
-0.736607 4.16901 0.415516 11 1 0
-0.727532 4.16899 0.415514 2 18 35
0.210454 4.16902 0.415518 108 98 88
0.215895 4.169 0.415516 74 44 10
0.6604 2.08451 0.207758 48 48 48
-0.713263 3.15491 0.313076 18 0 0
-0.709144 3.15491 0.313076 96 35 30
-0.703654 3.15493 0.313077 136 39 50
-0.63783 3.24257 0.321775 173 76 74
-0.749305 4.169 0.413708 82 41 15
-0.74386 4.16899 0.413707 42 18 9
-0.736607 4.16901 0.41371 11 0 0
-0.731158 4.16898 0.413706 18 24 32
0.210454 4.16902 0.413711 105 100 97
0.215895 4.169 0.413709 78 44 20
0.657676 2.0845 0.206854 26 27 42
0.6604 2.08451 0.206855 62 55 56
-0.714634 3.15491 0.310341 26 0 0
-0.710517 3.15491 0.310342 55 8 3
-0.640649 3.24255 0.318963 159 57 49
-0.636417 3.24257 0.318964 179 89 86
-0.749305 4.169 0.410095 87 41 10
-0.736607 4.16901 0.410096 18 1 0
-0.731158 4.16898 0.410093 27 34 44
-0.725722 4.16901 0.410097 2 10 19
0.210454 4.16902 0.410098 107 97 98
0.648368 2.04794 0.201451 57 50 51
-0.714634 3.15491 0.308974 28 1 1
-0.710517 3.15491 0.308975 57 9 5
-0.640649 3.24255 0.317558 158 53 47
-0.751127 4.16904 0.408293 82 33 4
-0.745676 4.16899 0.408288 61 26 2
-0.736607 4.16901 0.40829 13 1 0
-0.731158 4.16898 0.408287 36 42 53
0.210454 4.16902 0.408291 113 97 97
0.6604 2.08451 0.204145 62 52 55
-0.717385 3.15493 0.307609 45 3 4
-0.713263 3.15491 0.307608 18 0 0
-0.64206 3.24256 0.316153 146 44 40
-0.63783 3.24257 0.316155 175 67 66
-0.633594 3.24256 0.316153 137 84 100
-0.749305 4.169 0.406482 91 45 8
-0.74386 4.16899 0.406481 44 12 1
-0.738415 4.16897 0.40648 19 4 0
-0.732974 4.16899 0.406481 23 24 27
-0.727532 4.16899 0.406481 0 2 12
0.210454 4.16902 0.406485 119 104 101
0.249615 4.02522 0.392463 24 7 0
0.6604 2.08451 0.203242 59 51 56
-0.714634 3.15491 0.30624 19 1 1
-0.710517 3.15491 0.306241 56 7 11
-0.64206 3.24256 0.314748 147 45 46
-0.63783 3.24257 0.31475 181 70 74
-0.633594 3.24256 0.314748 148 97 111
-0.749305 4.169 0.404676 80 39 5
-0.74386 4.16899 0.404675 45 18 2
-0.738415 4.16897 0.404673 19 4 0
-0.732974 4.16899 0.404674 25 26 28
-0.727532 4.16899 0.404675 0 0 9
0.210454 4.16902 0.404678 121 106 101
0.249615 4.02522 0.390719 37 15 0
-0.714634 3.15491 0.304873 17 0 1
-0.710517 3.15491 0.304874 56 5 11
-0.740238 4.16902 0.402872 27 11 0
-0.734791 4.169 0.402869 6 4 2
-0.729342 4.16896 0.402865 6 13 24
-0.714634 3.15491 0.302139 22 1 1
-0.63783 3.24257 0.310534 188 80 83
-0.74386 4.16899 0.399255 45 20 0
-0.738415 4.16897 0.399254 17 1 0
0.6604 2.08451 0.199629 61 59 66
-0.714634 3.15491 0.300771 26 1 1
-0.636417 3.24257 0.309128 192 94 95
-0.754125 4.02525 0.383745 74 40 0
-0.749305 4.169 0.397449 88 47 3
-0.74386 4.16899 0.397448 45 20 0
-0.738415 4.16897 0.397447 18 2 1
-0.732974 4.16899 0.397448 28 23 34
-0.710517 3.15491 0.298038 81 25 23
-0.74386 4.16899 0.393835 44 20 0
-0.732974 4.16899 0.393835 30 33 46
0.661305 2.0845 0.196918 65 72 79
-0.714634 3.15491 0.29667 25 1 1
-0.710517 3.15491 0.296671 88 29 28
-0.632181 3.24255 0.304911 230 136 153
-0.74386 4.16899 0.392029 41 17 0
-0.732974 4.16899 0.392028 28 34 50
0.662209 2.08449 0.196014 79 81 83
-0.714634 3.15491 0.293936 22 1 1
-0.710517 3.15491 0.293936 99 32 31
-0.632181 3.24255 0.302101 240 133 153
-0.74386 4.16899 0.388416 41 17 0
-0.732974 4.16899 0.388415 35 49 60
0.661305 2.0845 0.194208 73 73 86
-0.710517 3.15491 0.292569 91 26 28
-0.740238 4.16902 0.386612 21 2 0
-0.714634 3.15491 0.291202 24 1 1
-0.710517 3.15491 0.291202 92 31 33
-0.714634 3.15491 0.289835 24 0 1
-0.710517 3.15491 0.289835 83 27 27
-0.710517 3.15491 0.285734 75 20 15
-0.655597 3.15491 0.27753 47 1 13
-0.651478 3.15491 0.27753 88 14 21
-0.651478 3.15491 0.274796 76 8 4
-0.647364 3.15493 0.274798 113 28 31
-0.645986 3.15491 0.272062 118 29 35
-0.647364 3.15493 0.269329 120 32 39
0.527237 3.53732 0.289711 0 105 100
-0.643242 3.15492 0.25429 139 43 50
0.524162 3.53735 0.285114 0 107 106
0.528777 3.53732 0.285112 3 91 78
-0.669329 3.15492 0.252923 157 62 71
0.525702 3.53735 0.283582 1 114 115
-0.71189 3.15492 0.21601 1 0 0
-0.70777 3.15491 0.21601 50 10 8
0.0726923 4.02525 0.2756 205 213 226
0.718252 3.24255 0.22201 177 178 148
-0.71189 3.15492 0.214643 5 0 0
-0.70777 3.15491 0.214643 50 7 9
-0.633634 3.15493 0.214644 201 92 103
-0.265393 4.02527 0.273857 20 28 14
-0.260137 4.02526 0.273857 49 41 38
-0.254879 4.02521 0.273853 92 93 98
0.0691882 4.02523 0.273854 147 152 164
-0.71189 3.15492 0.213276 6 0 0
-0.70777 3.15491 0.213275 56 13 16
-0.703654 3.15493 0.213276 99 27 27
-0.263639 4.02523 0.27211 30 30 19
-0.258383 4.02522 0.272109 85 81 84
0.0726923 4.02525 0.272112 217 224 234
-0.71189 3.15492 0.211909 9 0 0
-0.70777 3.15491 0.211908 54 14 15
-0.260137 4.02526 0.270368 40 36 41
0.0726923 4.02525 0.270368 220 226 233
-0.71189 3.15492 0.210542 13 0 1
-0.70777 3.15491 0.210541 37 2 4
-0.260137 4.02526 0.268624 45 44 50
0.0726923 4.02525 0.268623 224 233 240
-0.710517 3.15491 0.209174 8 0 1
-0.706397 3.15491 0.209174 67 14 13
-0.70228 3.15492 0.209175 103 40 42
-0.633634 3.15493 0.209176 185 79 85
-0.260137 4.02526 0.26688 48 47 51
-0.254879 4.02521 0.266876 90 90 90
0.0691882 4.02523 0.266877 133 140 148
0.0744442 4.02527 0.26688 224 228 240
0.718252 3.24255 0.214985 30 155 116
-0.710517 3.15491 0.203706 4 0 0
-0.706397 3.15491 0.203706 56 9 13
-0.694041 3.15491 0.203706 85 18 15
-0.263639 4.02523 0.2599 32 29 28
-0.253128 4.02524 0.259901 61 55 59
0.0761955 4.02524 0.259901 222 230 242
-0.710517 3.15491 0.202339 6 0 0
-0.706397 3.15491 0.202339 55 11 14
-0.698157 3.1549 0.202338 94 26 32
-0.694041 3.15491 0.202339 87 21 19
-0.663838 3.15492 0.20234 216 98 113
-0.659718 3.15492 0.202339 186 88 108
-0.267142 4.02523 0.258156 25 24 24
-0.261887 4.02523 0.258156 50 43 44
-0.249624 4.02521 0.258155 43 38 42
0.0761955 4.02524 0.258157 228 237 248
-0.692666 3.1549 0.200971 126 55 52
-0.267142 4.02523 0.256412 27 27 25
-0.261887 4.02523 0.256411 53 44 45
-0.256633 4.02525 0.256413 118 126 127
-0.692666 3.1549 0.199604 132 62 54
-0.265393 4.02527 0.25467 31 26 27
-0.260137 4.02526 0.25467 97 95 93
-0.254879 4.02521 0.254666 67 74 78
-0.710517 3.15491 0.198237 8 0 0
-0.706397 3.15491 0.198237 39 1 2
-0.70228 3.15492 0.198238 119 58 60
-0.698157 3.1549 0.198236 73 13 22
-0.694041 3.15491 0.198237 104 39 30
-0.662464 3.15492 0.198238 203 89 105
-0.658342 3.15491 0.198237 154 57 74
-0.265393 4.02527 0.252926 29 26 23
-0.260137 4.02526 0.252925 96 96 94
-0.249624 4.02521 0.252922 31 32 12
0.0761955 4.02524 0.252924 240 247 253
-0.710517 3.15491 0.19687 9 0 0
-0.706397 3.15491 0.19687 32 0 1
-0.70228 3.15492 0.196871 109 51 48
-0.698157 3.1549 0.196869 70 13 18
-0.694041 3.15491 0.19687 111 46 34
-0.662464 3.15492 0.19687 211 96 116
-0.268896 4.02526 0.251181 63 48 36
-0.263639 4.02523 0.251179 35 32 31
-0.258383 4.02522 0.251178 153 155 157
-0.253128 4.02524 0.251179 53 51 50
-0.247874 4.02524 0.251179 43 40 15
0.0779474 4.02525 0.25118 235 240 248
0.258373 4.02522 0.251178 133 115 120
-0.706397 3.15491 0.192769 29 0 0
-0.70228 3.15492 0.192769 115 51 53
-0.698157 3.1549 0.192768 87 22 21
-0.267142 4.02523 0.245946 35 31 31
0.0761955 4.02524 0.245947 200 214 219
0.0814511 4.02526 0.245948 170 176 185
-0.705028 3.15493 0.191403 51 10 1
-0.659718 3.15492 0.191402 185 87 102
-0.267142 4.02523 0.244202 23 23 22
0.0779474 4.02525 0.244203 184 194 197
-0.700906 3.15491 0.190035 96 38 44
0.0779474 4.02525 0.242459 151 158 162
-0.700906 3.15491 0.1873 91 36 32
0.0779474 4.02525 0.23897 174 176 182
-0.700906 3.15491 0.185933 89 26 19
0.0691882 4.02523 0.237224 228 229 235
0.0744442 4.02527 0.237227 136 137 142
0.0796992 4.02526 0.237226 151 152 156
-0.705028 3.15493 0.1832 39 2 3
-0.267142 4.02523 0.233736 28 31 23
-0.661093 3.15493 0.181833 207 98 114
-0.656973 3.15492 0.181832 141 40 57
-0.268896 4.02526 0.231994 50 46 34
-0.263639 4.02523 0.231992 28 39 37
-0.258383 4.02522 0.231991 179 179 179
-0.253128 4.02524 0.231992 52 51 45
-0.650107 3.15492 0.176364 91 6 8
-0.645986 3.15491 0.176363 70 2 2
-0.263639 4.02523 0.225015 32 38 30
-0.258383 4.02522 0.225015 178 179 179
-0.710517 3.15491 0.170895 6 0 0
-0.640492 3.1549 0.170894 125 37 31
-0.705028 3.15493 0.166794 54 4 3
-0.643242 3.15492 0.166794 83 9 1
-0.265393 4.02527 0.212807 25 19 19
-0.659718 3.15492 0.165426 198 101 111
-0.655597 3.15491 0.165426 159 52 74
-0.651478 3.15491 0.165426 144 32 47
-0.647364 3.15493 0.165427 105 15 17
-0.643242 3.15492 0.165427 83 6 1
-0.637745 3.15489 0.165425 137 48 43
-0.270647 4.02526 0.211062 86 85 78
-0.265393 4.02527 0.211063 28 28 32
-0.249624 4.02521 0.21106 40 38 30
-0.705028 3.15493 0.162693 38 4 3
-0.656973 3.15492 0.162693 176 76 103
-0.644614 3.15492 0.162692 76 3 2
-0.640492 3.1549 0.162691 124 37 27
-0.636377 3.15492 0.162692 141 44 55
-0.270647 4.02526 0.207574 85 81 81
-0.265393 4.02527 0.207574 26 26 34
-0.249624 4.02521 0.207572 49 40 28
-0.705028 3.15493 0.161326 44 4 2
-0.643242 3.15492 0.161325 88 12 7
-0.256633 4.02525 0.205829 134 136 139
-0.251376 4.02523 0.205828 41 42 27
-0.650107 3.15492 0.159958 132 29 35
-0.644614 3.15492 0.159958 77 4 4
-0.640492 3.1549 0.159957 115 29 20
-0.267142 4.02523 0.204084 39 32 34
-0.256633 4.02525 0.204085 132 132 134
-0.251376 4.02523 0.204084 43 43 27
-0.246121 4.02522 0.204084 85 86 71
0.714017 3.24255 0.164401 226 60 28
0.718252 3.24255 0.164401 229 114 66
-0.705028 3.15493 0.157224 55 9 4
-0.265393 4.02527 0.200597 37 29 24
-0.260137 4.02526 0.200597 117 117 117
-0.254879 4.02521 0.200594 75 75 77
0.715429 3.24255 0.161591 234 65 48
-0.705028 3.15493 0.15449 40 3 1
-0.270647 4.02526 0.197108 101 92 91
-0.265393 4.02527 0.197108 24 28 15
-0.260137 4.02526 0.197108 113 110 111
-0.254879 4.02521 0.197105 76 76 78
-0.249624 4.02521 0.197106 39 32 16
-0.265393 4.02527 0.195364 22 25 15
-0.260137 4.02526 0.195364 115 115 116
-0.254879 4.02521 0.195361 74 74 75
-0.703654 3.15493 0.150389 55 11 11
-0.265393 4.02527 0.191876 30 27 26
-0.260137 4.02526 0.191876 119 119 122
-0.254879 4.02521 0.191873 77 77 80
0.467204 3.53734 0.168618 89 112 121
-0.265393 4.02527 0.190132 29 26 26
-0.260137 4.02526 0.190131 118 114 117
-0.254879 4.02521 0.190129 78 80 82
-0.260137 4.02526 0.186642 111 111 109
-0.254879 4.02521 0.18664 75 77 79
-0.270647 4.02526 0.183154 101 92 92
-0.265393 4.02527 0.183154 19 17 12
-0.260137 4.02526 0.183154 111 109 107
-0.254879 4.02521 0.183152 76 77 80
-0.270647 4.02526 0.177921 104 97 96
-0.265393 4.02527 0.177921 27 27 29
-0.260137 4.02526 0.177921 101 105 104
-0.254879 4.02521 0.177919 75 79 77
-0.265393 4.02527 0.176177 29 29 28
-0.260137 4.02526 0.176177 102 105 105
-0.254879 4.02521 0.176174 76 81 73
-0.270647 4.02526 0.174432 104 99 97
-0.265393 4.02527 0.174433 23 25 19
-0.260137 4.02526 0.174433 109 113 112
-0.254879 4.02521 0.17443 80 81 72
-0.249624 4.02521 0.174431 46 38 18
-0.270647 4.02526 0.170944 106 105 99
-0.265393 4.02527 0.170944 30 30 27
-0.260137 4.02526 0.170944 106 109 112
-0.254879 4.02521 0.170942 72 73 70
-0.0516803 4.02522 0.170942 174 175 177
-0.270647 4.02526 0.1692 103 102 97
-0.265393 4.02527 0.1692 30 27 25
-0.260137 4.02526 0.1692 110 108 114
-0.254879 4.02521 0.169198 77 78 81
-0.249624 4.02521 0.169198 42 39 26
-0.0569354 4.02523 0.169199 99 104 103
-0.0516803 4.02522 0.169198 199 199 199
0.342896 3.64788 0.153337 141 174 198
0.347661 3.6479 0.153338 215 228 246
-0.270647 4.02526 0.167455 102 101 99
-0.265393 4.02527 0.167456 36 32 33
-0.260137 4.02526 0.167456 110 108 113
-0.254879 4.02521 0.167453 78 82 90
-0.249624 4.02521 0.167454 37 34 27
-0.0551839 4.02524 0.167455 128 134 131
-0.049929 4.02526 0.167456 155 154 155
0.344483 3.64787 0.151755 177 198 227
-0.267142 4.02523 0.160477 34 31 26
-0.256633 4.02525 0.160478 147 146 151
-0.251376 4.02523 0.160477 48 44 28
-0.265393 4.02527 0.150013 32 31 34
-0.258383 4.02522 0.150011 157 159 161
-0.265393 4.02527 0.148269 33 29 31
-0.258383 4.02522 0.148267 166 166 170
-0.253128 4.02524 0.148268 58 58 60
-0.042922 4.02523 0.148268 21 20 20
-0.265393 4.02527 0.14478 26 26 23
-0.258383 4.02522 0.144778 166 166 169
-0.251376 4.02523 0.144779 41 40 37
-0.246121 4.02522 0.144778 80 66 64
-0.0551839 4.02524 0.144779 20 14 11
-0.042922 4.02523 0.144779 30 30 27
0.470875 1.28277 0.0461383 103 95 84
-0.637745 3.15489 0.112108 73 4 0
-0.659586 3.76555 0.133807 138 146 166
-0.265393 4.02527 0.143036 26 29 24
-0.260137 4.02526 0.143036 104 104 104
-0.254879 4.02521 0.143034 84 83 88
-0.249624 4.02521 0.143034 39 27 17
-0.042922 4.02523 0.143035 27 27 23
-0.658342 3.15491 0.110741 215 109 129
-0.637745 3.15489 0.11074 81 7 2
-0.659586 3.76555 0.132175 130 140 162
-0.654668 3.76554 0.132175 119 117 128
-0.267142 4.02523 0.14129 28 35 25
-0.261887 4.02523 0.14129 51 54 53
-0.256633 4.02525 0.141291 148 146 149
-0.251376 4.02523 0.14129 44 40 36
-0.0481769 4.02523 0.14129 54 53 43
-0.042922 4.02523 0.14129 30 33 26
0.0814511 4.02526 0.141291 92 117 156
0.0867056 4.02523 0.14129 160 174 187
0.508767 3.53734 0.124165 43 111 93
0.470875 1.28277 0.0450266 98 92 86
0.473109 1.28277 0.0450266 46 36 30
-0.267142 4.02523 0.137802 28 38 29
-0.261887 4.02523 0.137802 51 53 50
-0.256633 4.02525 0.137803 143 142 147
-0.249624 4.02521 0.137801 46 39 33
-0.637745 3.15489 0.106639 71 1 1
-0.659586 3.76555 0.12728 126 135 162
-0.265393 4.02527 0.136059 16 23 15
-0.260137 4.02526 0.136059 101 103 105
-0.254879 4.02521 0.136057 82 81 84
-0.249624 4.02521 0.136057 45 38 27
-0.244368 4.02521 0.136057 97 90 83
0.469758 1.28277 0.043359 101 102 86
0.473109 1.28277 0.0433591 43 38 30
-0.661223 3.76554 0.125648 137 150 181
-0.265393 4.02527 0.134314 22 25 22
-0.258383 4.02522 0.134313 165 168 171
-0.251376 4.02523 0.134313 47 44 34
0.469758 1.28277 0.0428031 103 101 85
0.471992 1.28277 0.0428032 40 38 29
0.473667 1.28277 0.0428032 69 58 40
-0.261887 4.02523 0.12908 53 53 53
-0.256633 4.02525 0.129081 151 153 156
-0.263639 4.02523 0.120359 30 31 27
-0.258383 4.02522 0.120359 167 168 171
-0.260137 4.02526 0.115127 94 96 99
-0.254879 4.02521 0.115126 95 93 100
-0.261887 4.02523 0.113382 78 79 75
-0.256633 4.02525 0.113383 161 167 172
-0.249624 4.02521 0.113382 37 37 39
-0.372244 4.02521 0.108149 129 132 131
-0.366992 4.02525 0.10815 238 239 243
-0.263639 4.02523 0.108149 64 75 72
-0.258383 4.02522 0.108149 228 232 231
-0.253128 4.02524 0.108149 86 96 102
-0.148025 4.02524 0.108149 201 204 204
-0.375748 4.02522 0.106404 27 33 36
-0.370497 4.02526 0.106406 144 147 146
-0.365241 4.02526 0.106405 228 230 234
-0.265393 4.02527 0.106406 41 43 43
-0.260137 4.02526 0.106406 159 162 161
-0.254879 4.02521 0.106404 137 139 144
-0.246121 4.02522 0.106405 50 41 39
-0.155032 4.02524 0.106405 77 80 82
-0.149777 4.02522 0.106405 197 199 201
-0.144521 4.02523 0.106405 62 62 62
-0.0394187 4.02527 0.106406 45 40 41
0.475825 1.29702 0.0342861 96 87 71
-0.15328 4.02523 0.102916 171 172 175
-0.373997 4.02523 0.101172 47 38 34
-0.368739 4.0252 0.101171 98 98 101
-0.251376 4.02523 0.101172 60 53 46
-0.15328 4.02523 0.101172 174 174 177
-0.148025 4.02524 0.101172 87 79 88
-0.14277 4.02524 0.101172 51 44 37
-0.632261 3.15493 0.0779306 113 17 17
-0.373997 4.02523 0.0994281 46 38 37
-0.368739 4.0252 0.0994273 72 70 75
-0.36349 4.02527 0.0994289 219 222 224
-0.358232 4.02524 0.0994283 82 91 94
-0.267142 4.02523 0.099428 16 25 25
-0.251376 4.02523 0.099428 56 53 51
-0.246121 4.02522 0.0994279 35 38 33
-0.160288 4.02525 0.0994286 44 42 38
-0.155032 4.02524 0.0994284 133 132 136
-0.149777 4.02522 0.0994278 113 109 117
-0.144521 4.02523 0.0994279 62 47 42
-0.0394187 4.02527 0.099429 37 35 39
-0.705028 3.15493 0.0738291 41 2 1
-0.636377 3.15492 0.0738288 81 2 1
-0.632261 3.15493 0.0738291 103 19 12
-0.372244 4.02521 0.0941948 30 25 32
-0.366992 4.02525 0.0941956 90 88 93
-0.361735 4.02523 0.0941953 198 198 199
-0.354729 4.02524 0.0941955 52 50 46
-0.246121 4.02522 0.094195 28 31 33
-0.156785 4.02526 0.0941959 69 73 79
-0.151529 4.02524 0.0941955 125 126 133
-0.146274 4.02525 0.0941957 71 61 58
0.46681 1.57746 0.0369145 168 138 90
0.468869 1.57746 0.0369144 163 133 88
0.470928 1.57746 0.0369144 178 150 116
0.468375 1.55643 0.0364223 120 72 38
-0.628137 3.15491 0.0724615 131 36 34
-0.251376 4.02523 0.0924509 62 54 53
0.470243 1.57746 0.036231 173 151 115
-0.361735 4.02523 0.0907064 182 180 185
-0.356481 4.02524 0.0907066 72 72 75
-0.258383 4.02522 0.0907061 139 137 143
-0.253128 4.02524 0.0907065 74 71 69
0.468869 1.57746 0.0355472 162 130 86
-0.705028 3.15493 0.0683605 53 4 2
-0.635003 3.15492 0.0683602 87 6 6
-0.361735 4.02523 0.0872181 166 168 173
-0.356481 4.02524 0.0872184 76 80 78
-0.256633 4.02525 0.0872186 157 157 159
-0.251376 4.02523 0.087218 59 58 55
0.460926 1.55643 0.0337245 101 59 0
0.462955 1.55643 0.0337244 126 101 43
-0.839329 2.59403 0.0539589 60 51 45
-0.709144 3.15491 0.0656259 10 0 0
-0.705028 3.15493 0.0656262 58 9 5
-0.700906 3.15491 0.0656259 122 45 45
-0.635003 3.15492 0.0656259 94 9 14
-0.621276 3.15493 0.0656262 168 58 72
-0.372244 4.02521 0.0837291 42 35 37
-0.361735 4.02523 0.0837295 159 164 168
-0.356481 4.02524 0.0837298 74 76 75
-0.261887 4.02523 0.0837294 73 71 79
-0.256633 4.02525 0.0837299 164 161 168
-0.246121 4.02522 0.0837293 47 38 37
-0.163791 4.02524 0.0837296 36 30 15
-0.15328 4.02523 0.0837294 137 134 139
0.461721 1.59907 0.0332624 85 57 38
0.46381 1.59907 0.0332625 108 79 44
0.465896 1.59906 0.0332624 170 151 116
-0.709144 3.15491 0.0642585 8 0 1
-0.705028 3.15493 0.0642589 59 15 8
-0.700906 3.15491 0.0642585 120 46 45
